# .PCD v0.7 - Point Cloud Data file format
VERSION 0.7
FIELDS x y z rgb
SIZE 4 4 4 4
TYPE F F F U
COUNT 1 1 1 1
WIDTH 1147
HEIGHT 1
VIEWPOINT 0 0 0 1 0 0 0
POINTS 1147
DATA ascii
0.23294517 0.026731413 0.60473514 9276813
0.23410453 0.026739212 0.60491157 9276813
0.23526457 0.026747016 0.60508811 9276813
0.23642527 0.026754823 0.60526472 9276813
0.23758665 0.026762635 0.60544145 9276813
0.2387487 0.026770448 0.60561824 9276813
0.23991142 0.02677827 0.60579515 9276813
0.24107485 0.026786095 0.60597217 9276813
0.24223897 0.026793927 0.60614938 9276813
0.24340373 0.026801759 0.60632658 9276813
0.2445692 0.026809599 0.6065039 9276813
0.24573533 0.026817443 0.60668135 9276813
0.24690217 0.02682529 0.60685891 9276813
0.24806966 0.026833143 0.60703653 9276813
0.24923794 0.026841009 0.60721451 9276813
0.25040686 0.026848875 0.60739243 9276813
0.25157639 0.026856739 0.60757035 9276813
0.25274661 0.026864607 0.60774833 9276813
0.25391752 0.026872482 0.60792649 9276813
0.25508913 0.026880359 0.60810471 9276813
0.25626141 0.026888242 0.60828304 9276813
0.27763861 0.029007019 0.65621537 8947848
0.27854466 0.028978106 0.65556127 8816262
0.2794489 0.02894925 0.65490848 8816262
0.28029114 0.028914243 0.65411651 8355711
0.28087345 0.02885283 0.65272719 7895160
0.2815069 0.028797155 0.65146768 8158332
0.28218576 0.028746573 0.65032339 8026746
0.28285694 0.02869563 0.64917094 8289918
0.28362593 0.028654991 0.64825153 8553090
0.28450719 0.028625978 0.64759523 8158332
0.28122479 0.02817999 0.63750577 6776679
0.28152648 0.028095309 0.63559008 6776679
0.28182635 0.028011138 0.63368589 6776679
0.28212443 0.027927469 0.63179308 6776679
0.28242075 0.0278443 0.6299116 6776679
0.28271529 0.027761623 0.62804121 6776679
0.2830081 0.027679434 0.6261819 6776679
0.28329915 0.027597729 0.6243335 6776679
0.28358847 0.027516505 0.62249601 6776679
0.28387615 0.027435761 0.62066936 6776679
0.28416213 0.027355488 0.61885339 6776679
0.28444645 0.027275685 0.61704803 6776679
0.28472906 0.027196344 0.61525309 6776679
0.2850101 0.027117465 0.61346865 6776679
0.28579479 0.027086932 0.61277795 9276813
0.28698525 0.027094945 0.61295921 9276813
0.28817639 0.027102962 0.61314058 9276813
0.2893683 0.027110988 0.61332214 9276813
0.2905609 0.027119016 0.61350375 9276813
0.29175422 0.027127052 0.61368555 9276813
0.3061038 0.028353661 0.64143467 9276813
0.30735213 0.02836206 0.64162469 9276813
0.30860114 0.028370462 0.64181477 9276813
0.30985093 0.02837887 0.64200497 9276813
0.31110144 0.028387282 0.64219528 9276813
0.31235272 0.028395701 0.64238572 9276813
0.31360471 0.028404124 0.64257628 9276813
0.31485745 0.028412553 0.64276695 9276813
0.31611094 0.028420983 0.64295769 9276813
0.3173652 0.028429423 0.6431486 9276813
0.31862015 0.028437864 0.64333957 9276813
0.3198759 0.028446313 0.64353073 9276813
0.32113236 0.028454766 0.64372194 9276813
0.32238957 0.028463224 0.64391327 8684676
0.32301635 0.028416159 0.64284855 6842472
0.32327986 0.028337592 0.64107114 6842472
0.32354191 0.028259452 0.63930345 6842472
0.32380256 0.02818175 0.63754559 6842472
0.32406175 0.028104469 0.63579732 6842472
0.32431948 0.028027609 0.63405854 6842472
0.32457584 0.027951172 0.63232929 6842472
0.32483089 0.027875155 0.63060963 6842472
0.32508457 0.027799552 0.62889928 6842472
0.32533684 0.027724357 0.62719816 6842472
0.32558778 0.02764957 0.62550628 6842472
0.32583746 0.027575191 0.62382364 6842472
0.32608578 0.027501211 0.62215 6842472
0.32633278 0.027427625 0.62048531 6842472
0.32666725 0.027361874 0.61899781 8684676
0.32788193 0.027370043 0.61918265 9276813
0.32909739 0.027378222 0.61936766 9276813
0.33031353 0.027386403 0.61955273 9276813
0.33153045 0.027394591 0.61973798 9276813
0.33274817 0.02740279 0.61992347 9276813
0.17011586 0.031096447 0.67589617 5987163
0.17068039 0.030977579 0.67331249 6710886
0.17124063 0.030859618 0.67074853 6710886
0.17182596 0.030747803 0.66831821 6710886
0.17243835 0.030642355 0.66602623 6710886
0.17304656 0.030537628 0.66374993 6710886
0.17365059 0.03043361 0.66148907 6710886
0.17425057 0.030330304 0.65924364 6710886
0.17484646 0.030227693 0.65701336 6710886
0.17543833 0.030125774 0.65479809 6710886
0.17602624 0.030024543 0.65259778 6710886
0.1766102 0.029923989 0.6504122 6710886
0.17719041 0.029824128 0.6482417 6710886
0.17776677 0.029724935 0.64608568 6710886
0.1783393 0.029626399 0.64394397 6710886
0.17890806 0.029528514 0.64181638 6710886
0.17951775 0.0294386 0.63986206 6710886
0.1801385 0.02935164 0.63797194 6710886
0.1807556 0.029265193 0.63609296 6710886
0.18136908 0.029179253 0.63422501 6710886
0.18197897 0.029093817 0.63236803 6710886
0.18258531 0.02900888 0.63052189 6710886
0.1831881 0.028924435 0.62868643 6710886
0.18378739 0.028840484 0.62686169 6710886
0.18438321 0.028757013 0.62504745 6710886
0.18497565 0.028674038 0.62324393 6710886
0.1855647 0.02859154 0.62145078 6710886
0.18615034 0.028509513 0.61966789 6710886
0.18673266 0.028427957 0.61789525 6710886
0.18733518 0.028350428 0.6162101 6710886
0.18797517 0.02827945 0.61466736 6710886
0.18861197 0.028208828 0.61313236 6710886
0.18924557 0.028138554 0.61160493 6710886
0.18987605 0.028068634 0.61008519 6710886
0.19050339 0.027999058 0.6085729 6710886
0.19112766 0.027929829 0.60706818 6710886
0.19174883 0.02786094 0.60557085 6710886
0.19236693 0.027792389 0.60408086 6710886
0.192982 0.027724175 0.60259819 6710886
0.19359405 0.027656293 0.60112274 6710886
0.19420312 0.027588746 0.59965456 6710886
0.19496742 0.027543873 0.59867924 8026746
0.19610423 0.027551834 0.59885228 9276813
0.19724168 0.027559796 0.59902537 9276813
0.19837978 0.027567763 0.59919852 9276813
0.19951853 0.027575733 0.59937173 9276813
0.20065793 0.027583705 0.599545 9276813
0.20179796 0.027591679 0.59971833 9276813
0.20293869 0.027599663 0.59989184 9276813
0.20408006 0.027607648 0.60006541 9276813
0.2052221 0.027615638 0.6002391 9276813
0.20636478 0.027623631 0.60041285 9276813
0.20750813 0.027631631 0.60058671 9276813
0.20865211 0.027639631 0.60076058 9276813
0.20979676 0.027647635 0.60093457 9276813
0.21094218 0.027655659 0.60110897 9276813
0.21208817 0.027663674 0.60128319 9276813
0.21323478 0.027671691 0.60145742 9276813
0.21438219 0.027679725 0.60163206 9276813
0.21553025 0.027687766 0.60180682 9276813
0.21667898 0.027695809 0.60198164 9276813
0.21782827 0.027703846 0.60215634 9276813
0.21897826 0.027711889 0.60233116 9276813
0.22012894 0.027719941 0.60250616 9276813
0.22128029 0.027727997 0.60268128 9276813
0.22243232 0.02773606 0.60285652 9276813
0.22358501 0.027744126 0.60303181 9276813
0.22473836 0.027752195 0.60320723 9276813
0.22589238 0.027760269 0.60338271 9276813
0.2270471 0.027768349 0.60355836 9276813
0.22820246 0.027776435 0.60373408 9276813
0.22935854 0.027784526 0.60390997 9276813
0.23051526 0.02779262 0.60408586 9276813
0.23167264 0.027800716 0.60426188 9276813
0.23283072 0.027808821 0.60443801 9276813
0.23398946 0.027816929 0.60461426 9276813
0.23514888 0.027825041 0.60479057 9276813
0.23630899 0.02783316 0.60496706 9276813
0.23746975 0.027841281 0.60514355 9276813
0.2386312 0.02784941 0.60532022 9276813
0.23979333 0.02785754 0.60549694 9276813
0.24095616 0.027865678 0.60567385 9276813
0.24211966 0.02787382 0.60585082 9276813
0.24328381 0.027881965 0.60602784 9276813
0.24444868 0.027890118 0.60620505 9276813
0.24561422 0.027898272 0.60638231 9276813
0.24678041 0.027906431 0.60655963 9276813
0.24794732 0.027914599 0.60673714 9276813
0.24911489 0.027922768 0.6069147 9276813
0.25028321 0.027930951 0.60709256 9276813
0.25145218 0.027939131 0.60727036 9276813
0.25262183 0.027947316 0.60744828 9276813
0.25379211 0.027955502 0.6076262 9276813
0.25496307 0.027963692 0.60780424 9276813
0.25613475 0.02797189 0.6079824 9276813
0.27736601 0.030161336 0.65557104 9013641
0.27827144 0.030131303 0.65491825 8816262
0.27917507 0.030101329 0.65426677 8816262
0.27994022 0.030056739 0.6532976 8026746
0.28052878 0.029993642 0.65192616 7960953
0.28119484 0.029939326 0.65074557 8158332
0.28188637 0.029888161 0.64963347 8289918
0.28266329 0.029846435 0.64872652 8553090
0.28354618 0.029816195 0.64806926 8618883
0.28442726 0.029786017 0.64741331 8158332
0.28123873 0.029331647 0.63753736 6776679
0.28154036 0.029243501 0.63562149 6776679
0.28184023 0.029155886 0.63371712 6776679
0.28213829 0.029068794 0.63182414 6776679
0.28243458 0.02898222 0.62994242 6776679
0.28272909 0.02889616 0.62807184 6776679
0.28302187 0.028810609 0.62621236 6776679
0.28331289 0.028725561 0.62436378 6776679
0.28360218 0.028641013 0.62252611 6776679
0.28388983 0.028556965 0.62069929 6776679
0.28417578 0.028473407 0.61888313 6776679
0.28446004 0.028390337 0.61707753 6776679
0.28474265 0.028307749 0.61528248 6776679
0.28502369 0.028225645 0.61349791 6776679
0.28565249 0.028178485 0.61247283 8684676
0.28684229 0.028186815 0.61265391 9276813
0.28803283 0.028195152 0.61283511 9276813
0.28922406 0.028203495 0.61301643 9276813
0.29041603 0.028211845 0.61319792 9276813
0.29160869 0.028220197 0.61337948 9276813
0.30595112 0.029496232 0.64111471 9276813
0.30719873 0.029504964 0.64130449 9276813
0.30844709 0.0295137 0.64149439 9276813
0.30969623 0.029522443 0.64168441 9276813
0.31094608 0.02953119 0.64187455 9276813
0.31219667 0.029539945 0.64206481 9276813
0.31344801 0.029548703 0.64225519 9276813
0.31470007 0.029557465 0.64244562 9276813
0.31595287 0.029566232 0.64263618 9276813
0.31720644 0.029575007 0.64282691 9276813
0.31846073 0.029583786 0.64301771 9276813
0.3197158 0.029592568 0.64320862 9276813
0.32097158 0.029601358 0.64339966 9276813
0.32222816 0.029610155 0.64359087 9276813
0.32299289 0.029573856 0.64280188 6842472
0.32325646 0.029492091 0.64102471 6842472
0.32351854 0.029410778 0.63925731 6842472
0.3237792 0.029329911 0.63749963 6842472
0.32403845 0.029249487 0.63575161 6842472
0.32429627 0.029169504 0.63401312 6842472
0.32455269 0.029089959 0.63228416 6842472
0.32480779 0.029010853 0.63056475 6842472
0.32506147 0.028932175 0.62885463 6842472
0.32531381 0.028853921 0.62715375 6842472
0.32556477 0.028776089 0.62546206 6842472
0.32581446 0.028698683 0.62377959 6842472
0.32606286 0.028621696 0.62210625 6842472
0.32630986 0.028545115 0.62044173 6842472
0.32655555 0.028468946 0.61878616 8092539
0.32771701 0.028472858 0.61887115 9276813
0.32893175 0.028481357 0.61905593 9276813
0.3301473 0.028489867 0.61924088 9276813
0.33136353 0.028498381 0.61942595 9276813
0.33258057 0.028506905 0.6196112 9276813
0.33379832 0.028515434 0.61979657 6513507
0.17090274 0.032234326 0.67418969 6710886
0.17152371 0.032122813 0.67185736 6710886
0.17214036 0.032012068 0.66954106 6710886
0.17275278 0.031902082 0.66724068 6710886
0.17336102 0.031792849 0.66495609 6710886
0.17396508 0.031684361 0.662687 6710886
0.17456506 0.031576615 0.66043347 6710886
0.17516096 0.031469595 0.65819514 6710886
0.17575283 0.031363301 0.65597194 6710886
0.17634077 0.03125773 0.65376389 6710886
0.17692487 0.031152885 0.65157104 6710886
0.17750506 0.031048741 0.64939284 6710886
0.17808138 0.03094529 0.64722914 6710886
0.17870048 0.030850571 0.64524806 6710886
0.17932889 0.030758675 0.64332604 6710886
0.17995356 0.030667327 0.64141548 6710886
0.18057454 0.030576518 0.63951617 6710886
0.18119183 0.030486245 0.63762808 6710886
0.18180551 0.030396504 0.63575113 6710886
0.18241557 0.030307291 0.6338852 6710886
0.1830221 0.030218601 0.63203025 6710886
0.18362512 0.030130437 0.63018626 6710886
0.18422461 0.030042782 0.62835294 6710886
0.18482064 0.029955637 0.62653029 6710886
0.18541321 0.029868998 0.62471819 6710886
0.18600239 0.02978286 0.62291658 6710886
0.18662098 0.029702438 0.62123454 6710886
0.18726799 0.029627472 0.61966664 6710886
0.18791172 0.029552883 0.61810654 6710886
0.18855223 0.029478667 0.61655432 6710886
0.18918954 0.029404825 0.6150099 6710886
0.18982366 0.029331351 0.61347318 6710886
0.1904546 0.029258242 0.61194408 6710886
0.19108239 0.029185494 0.61042255 6710886
0.1917071 0.029113112 0.60890865 6710886
0.19232871 0.029041087 0.60740221 6710886
0.19294727 0.02896942 0.60590327 6710886
0.19356276 0.028898103 0.60441166 6710886
0.19417523 0.028827135 0.60292733 6710886
0.1948081 0.028759969 0.60152256 6710886
0.19549209 0.028701056 0.60029036 6710886
0.19617331 0.028642382 0.59906322 8026746
0.19714558 0.028626619 0.59873348 9276813
0.19828312 0.028634891 0.59890652 9276813
0.19942132 0.02864317 0.59907967 9276813
0.20056015 0.028651452 0.59925288 9276813
0.20169963 0.028659733 0.59942609 9276813
0.20283979 0.028668024 0.59959948 9276813
0.20398057 0.028676312 0.59977287 9276813
0.20512199 0.028684607 0.59994632 9276813
0.20626411 0.028692907 0.60011995 9276813
0.20740688 0.028701212 0.60029364 9276813
0.2085503 0.028709522 0.60046744 9276813
0.20969436 0.028717833 0.60064125 9276813
0.21083911 0.028726151 0.60081524 9276813
0.21198459 0.028734483 0.60098952 9276813
0.21313059 0.028742801 0.60116351 9276813
0.21427737 0.02875114 0.60133791 9276813
0.21542488 0.028759494 0.60151261 9276813
0.21657293 0.028767832 0.60168701 9276813
0.21772179 0.028776197 0.60186195 9276813
0.21887109 0.028784534 0.60203636 9276813
0.22002117 0.028792894 0.60221118 9276813
0.22117192 0.028801257 0.60238612 9276813
0.22232336 0.028809628 0.60256118 9276813
0.22347544 0.028818 0.60273629 9276813
0.2246282 0.028826378 0.60291153 9276813
0.22578165 0.028834766 0.60308695 9276813
0.22693574 0.028843153 0.60326236 9276813
0.22809052 0.028851544 0.6034379 9276813
0.22924599 0.028859947 0.60361362 9276813
0.2304021 0.028868347 0.60378933 9276813
0.2315589 0.028876757 0.60396522 9276813
0.23271635 0.028885167 0.60414112 9276813
0.2338745 0.028893586 0.60431719 9276813
0.23503332 0.028902009 0.60449338 9276813
0.23619281 0.028910438 0.60466963 9276813
0.23735298 0.02891887 0.604846 9276813
0.23851384 0.028927308 0.60502249 9276813
0.23967536 0.028935749 0.60519904 9276813
0.24083756 0.028944196 0.60537571 9276813
0.24200046 0.028952651 0.60555255 9276813
0.243164 0.028961107 0.6057294 9276813
0.24432826 0.028969571 0.60590643 9276813
0.24549319 0.028978037 0.60608351 9276813
0.24665879 0.02898651 0.60626072 9276813
0.24782509 0.028994989 0.60643804 9276813
0.24899203 0.029003466 0.60661536 9276813
0.25015968 0.029011955 0.60679293 9276813
0.25132808 0.029020455 0.60697067 9276813
0.25249711 0.029028952 0.60714841 9276813
0.25366679 0.02903745 0.60732615 9276813
0.25483719 0.02904596 0.60750413 9276813
0.25600824 0.029054468 0.60768211 9276813
0.25718001 0.029062985 0.60786021 9145227
0.27799875 0.031282239 0.65427649 8816262
0.27890176 0.031251147 0.65362626 8421504
0.27958378 0.031195663 0.65246576 8026746
0.28018987 0.031132206 0.65113854 8026746
0.28088355 0.031078972 0.65002513 8289918
0.28169921 0.031039622 0.64920211 8618883
0.28258374 0.031008154 0.64854395 8618883
0.28346646 0.030976746 0.64788705 8618883
0.28434739 0.030945404 0.64723152 8618883
0.28125265 0.030483417 0.63756895 6776679
0.28155425 0.030391805 0.63565284 6776679
0.28185412 0.030300748 0.63374835 6776679
0.28215215 0.030210229 0.63185513 6776679
0.28244838 0.030120252 0.62997323 6776679
0.28274292 0.030030809 0.62810254 6776679
0.28303564 0.029941892 0.62624282 6776679
0.28332663 0.0298535 0.62439406 6776679
0.28361589 0.029765628 0.62255621 6776679
0.28390351 0.029678276 0.62072921 6776679
0.28418943 0.029591434 0.61891288 6776679
0.28447369 0.029505098 0.61710715 6776679
0.28475627 0.029419266 0.61531192 6776679
0.28503722 0.029333929 0.61352706 6776679
0.2855103 0.029268948 0.61216801 8684676
0.2866995 0.029277598 0.61234891 9276813
0.28788933 0.029286247 0.61252981 9276813
0.28907996 0.029294912 0.61271101 9276813
0.29027128 0.029303577 0.61289227 9276813
0.29146332 0.029312249 0.61307365 9276813
0.30579856 0.030637663 0.64079505 9276813
0.30704552 0.030646728 0.64098465 9276813
0.30829322 0.030655799 0.64117438 9276813
0.30954167 0.030664876 0.64136422 9276813
0.31079087 0.030673958 0.64155418 9276813
0.31204078 0.030683044 0.6417442 9276813
0.31329143 0.030692136 0.64193434 9276813
0.31454283 0.030701235 0.64212465 9276813
0.31579497 0.030710338 0.64231503 9276813
0.31704786 0.030719444 0.64250553 9276813
0.3183015 0.030728558 0.64269614 9276813
0.31955585 0.030737678 0.64288688 9276813
0.32081097 0.030746803 0.64307773 9276813
0.32206684 0.030755933 0.6432687 9276813
0.32296941 0.03073138 0.64275515 7434609
0.32323304 0.030646425 0.64097828 6842472
0.32349518 0.030561933 0.63921112 6842472
0.32375589 0.030477909 0.63745373 6842472
0.32401517 0.030394344 0.63570595 6842472
0.32427302 0.030311234 0.6339677 6842472
0.32452953 0.030228585 0.63223904 6842472
0.32478467 0.030146386 0.63051987 6842472
0.32503837 0.030064631 0.62880993 6842472
0.32529077 0.029983323 0.62710935 6842472
0.32554179 0.029902451 0.62541789 6842472
0.32579145 0.029822016 0.62373555 6842472
0.32603985 0.029742019 0.62206239 6842472
0.32628697 0.029662451 0.62039822 6842472
0.32653272 0.029583307 0.61874288 7434609
0.3275522 0.02957456 0.61855996 9276813
0.32876629 0.029583383 0.61874449 9276813
0.32998112 0.029592214 0.61892921 9276813
0.33119676 0.029601058 0.61911416 9276813
0.33241311 0.029609907 0.61929923 9276813
0.3336302 0.029618761 0.61948442 7895160
0.1712182 0.033512458 0.67543411 5987163
0.17183921 0.033396311 0.6730932 6710886
0.17245591 0.033280965 0.67076838 6710886
0.17306834 0.033166409 0.66845953 6710886
0.17367661 0.033052642 0.6661666 6710886
0.1742807 0.032939654 0.66388935 6710886
0.17488067 0.032827429 0.66162753 6710886
0.17547658 0.032715973 0.65938115 6710886
0.17606856 0.032605287 0.65715033 6710886
0.17665657 0.032495357 0.6549347 6710886
0.17724067 0.032386169 0.65273404 6710886
0.17786935 0.032286514 0.65072554 6710886
0.17850555 0.032189526 0.64877075 6710886
0.17913797 0.032093123 0.64682776 6710886
0.17976658 0.03199729 0.64489627 6710886
0.18039148 0.03190203 0.64297634 6710886
0.18101268 0.031807337 0.64106786 6710886
0.18163022 0.031713214 0.63917083 6710886
0.18224414 0.031619646 0.63728499 6710886
0.18285443 0.031526625 0.63541019 6710886
0.18346114 0.031434152 0.63354641 6710886
0.18406431 0.03134222 0.63169354 6710886
0.18466397 0.031250827 0.62985152 6710886
0.18526013 0.031159962 0.62802017 6710886
0.18589504 0.031076679 0.62634164 6710886
0.18654919 0.030997599 0.62474781 6710886
0.18720004 0.030918924 0.62316215 6710886
0.18784755 0.030840643 0.62158442 6710886
0.18849181 0.030762758 0.62001467 6710886
0.18913285 0.03068527 0.61845291 6710886
0.18977065 0.03060817 0.61689895 6710886
0.19040523 0.030531453 0.61535275 6710886
0.19103666 0.03045512 0.61381429 6710886
0.19166493 0.030379169 0.61228353 6710886
0.1922901 0.030303597 0.61076039 6710886
0.1929121 0.030228391 0.60924464 6710886
0.19353098 0.030153552 0.60773629 6710886
0.19419028 0.030085817 0.6063711 6710886
0.19488111 0.030023701 0.60511917 6710886
0.19556904 0.02996183 0.60387218 6710886
0.19625413 0.029900214 0.60263032 6710886
0.19693641 0.029838851 0.60139358 6710886
0.19761592 0.029777741 0.60016191 6710886
0.19829264 0.029716881 0.59893531 8026746
0.19932415 0.029709563 0.59878778 9276813
0.20046242 0.029718148 0.59896082 9276813
0.20160134 0.029726738 0.59913397 9276813
0.20274092 0.029735336 0.59930724 9276813
0.20388113 0.029743932 0.59948051 9276813
0.20502202 0.029752536 0.5996539 9276813
0.20616353 0.029761137 0.59982729 9276813
0.20730571 0.02976975 0.60000086 9276813
0.20844856 0.029778365 0.60017449 9276813
0.20959206 0.029786985 0.60034823 9276813
0.21073617 0.029795604 0.60052192 9276813
0.21188104 0.029804239 0.60069597 9276813
0.21302651 0.029812871 0.60086995 9276813
0.21417268 0.029821513 0.60104412 9276813
0.2153196 0.029830173 0.60121864 9276813
0.21646702 0.029838813 0.60139281 9276813
0.21761519 0.029847469 0.60156727 9276813
0.21876402 0.02985613 0.60174185 9276813
0.21991353 0.029864799 0.60191655 9276813
0.22106367 0.02987347 0.60209131 9276813
0.22221452 0.029882148 0.60226619 9276813
0.22336599 0.029890828 0.60244113 9276813
0.22451818 0.029899515 0.60261625 9276813
0.22567099 0.029908204 0.60279137 9276813
0.22682451 0.029916903 0.60296667 9276813
0.22797871 0.029925605 0.60314208 9276813
0.22913353 0.029934309 0.6033175 9276813
0.23028907 0.029943025 0.60349315 9276813
0.23144527 0.02995174 0.60366881 9276813
0.23260212 0.029960461 0.60384458 9276813
0.23375967 0.029969187 0.60402048 9276813
0.23491786 0.029977918 0.60419643 9276813
0.23607677 0.029986657 0.60437256 9276813
0.23723634 0.029995399 0.60454875 9276813
0.23839658 0.030004147 0.60472506 9276813
0.23955752 0.0300129 0.60490149 9276813
0.24071911 0.030021658 0.60507798 9276813
0.24188139 0.03003042 0.60525459 9276813
0.24304432 0.030039186 0.60543126 9276813
0.24420796 0.030047961 0.60560811 9276813
0.24537228 0.030056737 0.60578501 9276813
0.24653727 0.030065522 0.60596204 9276813
0.24770296 0.03007431 0.60613918 9276813
0.24886933 0.030083105 0.60631645 9276813
0.25003633 0.0300919 0.60649371 9276813
0.25120407 0.030100705 0.60667115 9276813
0.2523725 0.030109517 0.60684878 9276813
0.25354162 0.030118337 0.60702652 9276813
0.25471139 0.030127153 0.6072042 9276813
0.25588182 0.030135974 0.607382 9276813
0.25705296 0.030144801 0.60755992 9145227
0.27772659 0.032430921 0.65363598 8816262
0.27856809 0.032391638 0.65284425 8421504
0.27922827 0.032331694 0.65163612 8092539
0.27987942 0.032271214 0.65041715 8289918
0.2807337 0.032234557 0.64967835 8618883
0.28161985 0.032201856 0.64901924 8618883
0.28250423 0.032169219 0.6483615 8618883
0.28338683 0.032136653 0.64770508 8618883
0.28426757 0.032104142 0.64704984 8618883
0.2812666 0.031635303 0.63760054 7237230
0.28156817 0.031540222 0.63568425 6776679
0.28186801 0.031445723 0.63377959 6776679
0.282166 0.031351779 0.63188618 6776679
0.28246221 0.031258393 0.63000405 6776679
0.28275669 0.031165568 0.62813318 6776679
0.2830494 0.031073287 0.62627327 6776679
0.28334039 0.030981552 0.6244244 6776679
0.28362963 0.030890357 0.62258637 6776679
0.28391719 0.030799696 0.62075913 6776679
0.28420308 0.030709568 0.61894262 6776679
0.28448731 0.030619966 0.61713672 6776679
0.28476989 0.030530885 0.61534131 6776679
0.28505081 0.03044232 0.61355633 6776679
0.28536829 0.030358329 0.61186349 8026746
0.28655681 0.030367292 0.61204416 9276813
0.28774604 0.030376263 0.61222494 9276813
0.28893602 0.030385241 0.6124059 9276813
0.29012668 0.030394224 0.61258698 9276813
0.29131809 0.030403215 0.61276817 9276813
0.29251018 0.030412212 0.61294949 9276813
0.30689245 0.031787354 0.64066511 9276813
0.3081395 0.031796761 0.64085466 9276813
0.30938727 0.031806167 0.64104426 9276813
0.31063578 0.031815585 0.64123404 9276813
0.31188506 0.031825006 0.64142394 9276813
0.31313503 0.031834431 0.6416139 9276813
0.31438574 0.03184386 0.64180398 9276813
0.3156372 0.031853296 0.64199412 9276813
0.31688944 0.031862739 0.6421845 9276813
0.31814238 0.031872187 0.64237487 9276813
0.31939611 0.031881645 0.64256549 9276813
0.32065055 0.0318911 0.6427561 9276813
0.3219057 0.031900566 0.64294684 9276813
0.32294595 0.031888738 0.64270848 7434609
0.32320961 0.03180059 0.64093184 6842472
0.32347178 0.031712923 0.63916492 6842472
0.32373255 0.03162574 0.63740778 6842472
0.32399186 0.03153903 0.63566023 6842472
0.32424977 0.031452801 0.63392228 6842472
0.32450637 0.031367049 0.63219392 6842472
0.32476154 0.031281758 0.63047498 6842472
0.32501534 0.031196933 0.62876534 6842472
0.32526773 0.031112567 0.62706494 6842472
0.32551876 0.031028651 0.62537366 6842472
0.3257685 0.030945195 0.62369162 6842472
0.32601693 0.030862188 0.62201864 6842472
0.32626405 0.030779628 0.62035465 6842472
0.32650986 0.030697508 0.61869955 7434609
0.32738754 0.030675152 0.618249 9276813
0.328601 0.030684303 0.61843342 9276813
0.32981515 0.030693457 0.61861789 9276813
0.33103013 0.030702626 0.61880273 9276813
0.3322458 0.030711798 0.61898756 9276813
0.33346224 0.030720977 0.61917257 7895160
0.17215587 0.034674503 0.67433357 6710886
0.17277262 0.034554522 0.67200023 6710886
0.17338508 0.034435365 0.66968292 6710886
0.17399335 0.034317028 0.66738153 6710886
0.17459747 0.034199502 0.66509598 6710886
0.17519745 0.034082782 0.662826 6710886
0.1757935 0.03396688 0.66057199 6710886
0.17638551 0.033851765 0.6583333 6710886
0.17702396 0.033747043 0.65629673 6710886
0.17766817 0.033644803 0.65430844 6710886
0.17830849 0.033543181 0.65233213 6710886
0.17894496 0.033442173 0.65036774 6710886
0.17957762 0.033341773 0.64841521 6710886
0.18020654 0.033241984 0.64647454 6710886
0.18083169 0.033142783 0.64454538 6710886
0.18145311 0.033044178 0.64262772 6710886
0.18207088 0.032946158 0.6407215 6710886
0.18268494 0.032848712 0.63882643 6710886
0.18329543 0.032751847 0.63694263 6710886
0.18390229 0.032655548 0.63506985 6710886
0.18450564 0.03255982 0.63320816 6710886
0.18515708 0.032473702 0.63153338 6710886
0.18581852 0.032390386 0.62991309 6710886
0.1864766 0.032307494 0.62830108 6710886
0.18713129 0.032225024 0.62669724 6710886
0.18778268 0.032142982 0.62510169 6710886
0.18843074 0.03206135 0.62351418 6710886
0.18907553 0.031980135 0.62193471 6710886
0.18971704 0.031899326 0.62036318 6710886
0.19035533 0.031818926 0.61879963 6710886
0.1909904 0.031738929 0.61724389 6710886
0.19162223 0.031659324 0.61569577 6710886
0.19225088 0.031580117 0.61415535 6710886
0.1928764 0.031501301 0.61262262 6710886
0.1935624 0.03143321 0.61129838 6710886
0.19426022 0.031367797 0.6100263 6710886
0.19495501 0.031302635 0.60875905 6710886
0.19564691 0.031237744 0.60749704 6710886
0.19633594 0.031173116 0.60624021 6710886
0.19702214 0.031108759 0.60498863 6710886
0.19770551 0.031044668 0.60374218 6710886
0.19838609 0.03098084 0.60250092 6710886
0.19906384 0.030917272 0.60126466 6710886
0.19973883 0.030853966 0.60003352 6710886
0.20041107 0.030790918 0.59880739 8026746
0.20150311 0.030792702 0.59884208 9276813
0.2026421 0.0308016 0.59901512 9276813
0.20378177 0.030810505 0.59918833 9276813
0.20492205 0.030819412 0.59936154 9276813
0.20606303 0.030828329 0.59953493 9276813
0.20720465 0.030837247 0.59970838 9276813
0.2083469 0.030846165 0.59988183 9276813
0.20948981 0.030855088 0.60005534 9276813
0.21063341 0.030864023 0.60022908 9276813
0.2117776 0.03087295 0.60040271 9276813
0.21292254 0.030881897 0.6005767 9276813
0.21406808 0.030890837 0.60075057 9276813
0.21521439 0.030899798 0.60092485 9276813
0.21636125 0.03090875 0.60109895 9276813
0.21750882 0.030917713 0.60127324 9276813
0.21865706 0.03092668 0.60144764 9276813
0.21980597 0.030935654 0.60162216 9276813
0.22095552 0.030944632 0.60179675 9276813
0.22210576 0.030953614 0.60197145 9276813
0.22325668 0.030962605 0.60214627 9276813
0.22440824 0.030971596 0.60232115 9276813
0.22556047 0.030980594 0.60249615 9276813
0.22671336 0.030989597 0.60267121 9276813
0.22786696 0.030998608 0.60284644 9276813
0.22902121 0.031007621 0.60302174 9276813
0.23017615 0.031016644 0.60319722 9276813
0.23133174 0.031025667 0.60337269 9276813
0.23248799 0.031034697 0.60354829 9276813
0.23364495 0.031043734 0.60372406 9276813
0.23480257 0.031052776 0.6038999 9276813
0.23596083 0.031061819 0.60407573 9276813
0.23711978 0.031070869 0.60425174 9276813
0.23827943 0.031079926 0.60442787 9276813
0.23943977 0.031088991 0.60460418 9276813
0.24060076 0.031098057 0.6047805 9276813
0.24176243 0.03110713 0.60495692 9276813
0.24292475 0.031116204 0.60513341 9276813
0.24408779 0.031125288 0.60531008 9276813
0.24525149 0.031134376 0.60548681 9276813
0.2464159 0.031143473 0.60566372 9276813
0.24758098 0.031152572 0.60584068 9276813
0.24874671 0.031161675 0.60601771 9276813
0.24991313 0.031170784 0.60619485 9276813
0.25108024 0.031179899 0.60637212 9276813
0.25224805 0.031189021 0.6065495 9276813
0.25341654 0.031198148 0.606727 9276813
0.25458571 0.03120728 0.60690463 9276813
0.25575557 0.031216417 0.60708231 9276813
0.25692606 0.031225557 0.60726005 9276813
0.277455 0.033577356 0.65299678 8816262
0.27821365 0.033526804 0.6520136 8092539
0.27887711 0.033465255 0.65081662 8355711
0.27976674 0.033431247 0.65015525 8618883
0.28065455 0.033397306 0.64949518 8618883
0.28154054 0.033363432 0.64883643 8618883
0.28242475 0.033329628 0.64817905 8618883
0.28330714 0.033295888 0.64752293 8618883
0.28418779 0.033262227 0.64686823 8618883
0.28128055 0.032787301 0.63763213 7237230
0.28158212 0.032688759 0.63571572 6776679
0.28188187 0.032590806 0.63381076 6776679
0.28217986 0.032493439 0.63191724 6776679
0.28247607 0.032396652 0.63003492 6776679
0.28277048 0.032300439 0.62816381 6776679
0.28306317 0.032204796 0.62630379 6776679
0.28335413 0.032109711 0.62445468 6776679
0.28364336 0.03201519 0.62261647 6776679
0.2839309 0.031921223 0.62078905 6776679
0.28421676 0.031827807 0.61897236 6776679
0.28450093 0.031734936 0.61716622 6776679
0.28478348 0.031642608 0.61537069 6776679
0.2850644 0.031550817 0.61358553 6776679
0.28534365 0.031459551 0.61181068 7434609
0.28641433 0.031455908 0.61173981 9276813
0.2876029 0.031465191 0.61192036 9276813
0.28879219 0.031474486 0.61210108 9276813
0.28998223 0.031483788 0.61228198 9276813
0.29117301 0.031493094 0.612463 9276813
0.29236445 0.031502407 0.61264414 9276813
0.30673957 0.032926846 0.64034593 9276813
0.30798596 0.032936584 0.6405353 9276813
0.30923304 0.032946322 0.64072472 9276813
0.31048086 0.032956071 0.64091426 9276813
0.31172943 0.032965824 0.64110392 9276813
0.31297877 0.032975581 0.6412937 9276813
0.31422883 0.032985345 0.6414836 9276813
0.31547964 0.032995116 0.64167362 9276813
0.31673118 0.033004895 0.64186376 9276813
0.31798348 0.033014677 0.64205402 9276813
0.31923649 0.033024464 0.64224434 9276813
0.32049024 0.033034254 0.64243478 9276813
0.32174477 0.033044059 0.64262539 9276813
0.3229225 0.033045929 0.64266181 7434609
0.32318619 0.032954585 0.64088535 6842472
0.32344842 0.032863744 0.63911873 6842472
0.32370922 0.032773402 0.63736182 6842472
0.32396862 0.032683562 0.63561463 6842472
0.32422656 0.032594204 0.63387686 6842472
0.32448319 0.032505348 0.6321488 6842472
0.32473838 0.032416966 0.63043004 6842472
0.32499224 0.032329071 0.6287207 6842472
0.32524469 0.03224165 0.62702054 6842472
0.32549581 0.032154698 0.62532955 6842472
0.32574552 0.032068212 0.62364763 6842472
0.32599396 0.031982198 0.62197483 6842472
0.32624117 0.031896651 0.62031114 6842472
0.326487 0.031811554 0.61865628 6842472
0.32722303 0.03177464 0.61793834 9276813
0.32843587 0.031784117 0.61812264 9276813
0.32964939 0.031793594 0.61830699 9276813
0.33086365 0.031803083 0.61849153 9276813
0.3320787 0.031812582 0.61867625 9276813
0.33329448 0.031822085 0.61886108 9276813
0.1724737 0.035957415 0.67557847 5987163
0.17309047 0.035832766 0.67323655 6710886
0.17370297 0.035708975 0.67091072 6710886
0.17431128 0.035586037 0.66860098 6710886
0.17491543 0.035463955 0.66630721 6710886
0.17551556 0.035342727 0.66402954 6710886
0.17616399 0.035232797 0.66196418 6710886
0.17681637 0.035125136 0.65994143 6710886
0.17746478 0.035018135 0.65793103 6710886
0.1781093 0.034911793 0.65593302 6710886
0.17874993 0.034806091 0.65394711 6710886
0.17938669 0.034701031 0.65197319 6710886
0.18001962 0.034596603 0.65001118 6710886
0.18064873 0.034492798 0.64806086 6710886
0.18127409 0.034389619 0.64612228 6710886
0.18189572 0.034287054 0.64419526 6710886
0.18251365 0.034185097 0.64227968 6710886
0.18312794 0.034083746 0.64037549 6710886
0.18373856 0.033982996 0.63848251 6710886
0.18440676 0.033894077 0.63681191 6710886
0.18507567 0.033806391 0.63516444 6710886
0.18574113 0.03371916 0.63352549 6710886
0.18640317 0.033632375 0.63189501 6710886
0.18706179 0.033546034 0.63027281 6710886
0.18771705 0.03346014 0.62865895 6710886
0.18836898 0.033374682 0.62705338 6710886
0.18901755 0.03328966 0.62545592 6710886
0.1896628 0.033205058 0.62386644 6710886
0.19030473 0.033120882 0.62228489 6710886
0.19094345 0.033037137 0.62071145 6710886
0.19157891 0.032953806 0.61914581 6710886
0.19221643 0.032871794 0.61760497 6710886
0.19292426 0.032802682 0.61630648 6710886
0.19362913 0.032733865 0.61501348 6710886
0.19433096 0.032665316 0.6137256 6710886
0.19502981 0.03259705 0.61244297 6710886
0.19572571 0.03252906 0.61116558 6710886
0.19641876 0.032461364 0.60989368 6710886
0.19710889 0.03239394 0.6086269 6710886
0.19779618 0.032326799 0.60736543 6710886
0.19848064 0.032259937 0.6061092 6710886
0.19916226 0.032193352 0.60485816 6710886
0.19984107 0.032127038 0.60361224 6710886
0.20052613 0.032062445 0.60239863 6710886
0.2013078 0.032013908 0.60148674 6710886
0.20208715 0.031965528 0.60057777 6710886
0.20286418 0.0319173 0.5996716 7368816
0.20368245 0.031876035 0.59889632 8026746
0.20482218 0.031885248 0.59906942 9276813
0.20596257 0.031894468 0.59924263 9276813
0.20710361 0.031903688 0.5994159 9276813
0.20824531 0.031912915 0.59958929 9276813
0.20938767 0.03192215 0.5997628 9276813
0.21053067 0.031931385 0.59993631 9276813
0.21167433 0.031940628 0.60010993 9276813
0.21281862 0.03194987 0.60028356 9276813
0.2139636 0.03195912 0.60045737 9276813
0.21510926 0.031968378 0.6006313 9276813
0.21625558 0.031977642 0.60080534 9276813
0.21740256 0.031986911 0.60097951 9276813
0.21855021 0.031996183 0.60115373 9276813
0.21969852 0.032005463 0.60132807 9276813
0.22084746 0.032014742 0.60150242 9276813
0.2219971 0.032024033 0.60167694 9276813
0.22314741 0.032033328 0.60185158 9276813
0.22429842 0.03204263 0.6020264 9276813
0.22545005 0.032051936 0.60220122 9276813
0.22660236 0.032061245 0.6023761 9276813
0.22775534 0.032070562 0.60255116 9276813
0.22890899 0.032079883 0.60272628 9276813
0.23006332 0.032089211 0.60290152 9276813
0.23121831 0.032098543 0.60307688 9276813
0.232374 0.032107882 0.60325235 9276813
0.23353031 0.032117222 0.60342783 9276813
0.23468733 0.032126572 0.60360348 9276813
0.23584501 0.032135926 0.60377926 9276813
0.23700337 0.032145284 0.60395509 9276813
0.23816241 0.032154649 0.60413104 9276813
0.23932213 0.032164022 0.60430712 9276813
0.24048251 0.032173395 0.60448325 9276813
0.24164359 0.032182779 0.60465956 9276813
0.24280533 0.032192167 0.60483593 9276813
0.24396774 0.032201558 0.60501236 9276813
0.24513085 0.032210957 0.60518897 9276813
0.24629462 0.03222036 0.60536563 9276813
0.24745908 0.03222977 0.60554242 9276813
0.24862424 0.032239188 0.60571933 9276813
0.24979004 0.032248605 0.60589629 9276813
0.25095654 0.03225803 0.60607338 9276813
0.25212371 0.032267459 0.60625052 9276813
0.25329161 0.032276899 0.60642791 9276813
0.25446016 0.032286342 0.60660529 9276813
0.25562939 0.03229579 0.60678279 9276813
0.25679928 0.032305241 0.60696036 9276813
0.27718392 0.034721553 0.65235877 8553090
0.27790713 0.034664948 0.65129524 8355711
0.27879837 0.034629691 0.65063286 8618883
0.27968782 0.03459451 0.64997184 8618883
0.28057542 0.034559395 0.64931208 8618883
0.28146127 0.034524355 0.64865375 8618883
0.28234529 0.034489386 0.64799672 8618883
0.28322753 0.034454484 0.64734101 8618883
0.28410801 0.03441966 0.64668667 8618883
0.28129447 0.033939414 0.63766372 7697781
0.28159603 0.033837404 0.63574713 6776679
0.28189576 0.033736005 0.63384199 6776679
0.28219372 0.03363521 0.63194823 6776679
0.2824899 0.033535019 0.6300658 6776679
0.28278431 0.033435419 0.62819451 6776679
0.28307694 0.033336408 0.62633425 6776679
0.28336787 0.033237979 0.62448496 6776679
0.28365707 0.033140134 0.62264657 6776679
0.28394458 0.033042859 0.62081897 6776679
0.28423041 0.032946158 0.6190021 6776679
0.28451458 0.03285002 0.61719584 6776679
0.2847971 0.032754444 0.61540014 6776679
0.28507799 0.032659419 0.6136148 6776679
0.28535727 0.032564949 0.61183983 7434609
0.2862719 0.032543436 0.61143565 9276813
0.28745991 0.032553043 0.61161613 9276813
0.28864855 0.032562647 0.61179662 9276813
0.28983793 0.032572262 0.61197728 9276813
0.29102805 0.032581888 0.61215812 9276813
0.29221889 0.032591522 0.61233908 9276813
0.3065868 0.034065202 0.64002705 9276813
0.30783254 0.034075271 0.64021623 9276813
0.30907893 0.034085341 0.64040542 9276813
0.3103261 0.034095418 0.64059478 9276813
0.31157404 0.034105506 0.64078432 9276813
0.31282267 0.034115598 0.64097387 9276813
0.3140721 0.034125697 0.64116365 9276813
0.31532219 0.034135796 0.64135343 9276813
0.31657305 0.034145907 0.64154333 9276813
0.31782469 0.034156021 0.64173341 9276813
0.31907704 0.034166146 0.64192361 9276813
0.32033014 0.034176271 0.64211386 9276813
0.32158399 0.034186404 0.64230424 9276813
0.32283854 0.034196544 0.64249474 8092539
0.32316276 0.034108415 0.64083892 6842472
0.32342508 0.0340144 0.6390726 6842472
0.32368591 0.033920903 0.63731593 6842472
0.32394534 0.03382792 0.63556892 6842472
0.32420334 0.033735447 0.6338315 6842472
0.32446003 0.033643484 0.63210368 6842472
0.32471529 0.033552017 0.63038516 6842472
0.32496917 0.033461049 0.62867606 6842472
0.32522163 0.033370569 0.62697607 6842472
0.3254728 0.033280581 0.62528539 6842472
0.3257226 0.033191077 0.62360376 6842472
0.32597107 0.033102054 0.62193114 6842472
0.32621828 0.033013515 0.62026763 6842472
0.32646415 0.032925446 0.61861295 6842472
0.32705876 0.032873027 0.6176281 8684676
0.32827085 0.032882821 0.6178121 9276813
0.32948375 0.032892626 0.61799634 9276813
0.33069739 0.032902438 0.61818069 9276813
0.33191177 0.032912258 0.61836523 9276813
0.33312684 0.032922085 0.61854982 9276813
0.17340952 0.037115719 0.67447746 6710886
0.17402205 0.036987264 0.6721431 6710886
0.17463043 0.036859713 0.6698252 6710886
0.17528903 0.036744438 0.66773039 6710886
0.1759498 0.036631186 0.66567236 6710886
0.17660654 0.036518641 0.66362715 6710886
0.17725927 0.036406785 0.66159445 6710886
0.17790799 0.036295608 0.65957415 6710886
0.17855278 0.036185112 0.65756619 6710886
0.17919363 0.036075287 0.65557039 6710886
0.17983063 0.035966124 0.65358669 6710886
0.18046376 0.035857622 0.6516149 6710886
0.18109311 0.035749771 0.64965504 6710886
0.18171866 0.035642564 0.64770687 6710886
0.18234049 0.035536006 0.64577043 6710886
0.18296374 0.035431072 0.64386356 6710886
0.1836438 0.035338398 0.64217943 6710886
0.18432033 0.035246208 0.64050412 6710886
0.18499333 0.035154495 0.63883752 6710886
0.18566285 0.035063263 0.63717961 6710886
0.18632887 0.034972496 0.63553017 6710886
0.18699148 0.034882203 0.63388932 6710886
0.18765067 0.034792375 0.63225693 6710886
0.18830639 0.03470299 0.63063264 6710886
0.18895876 0.034614068 0.6290167 6710886
0.18960778 0.034525596 0.62740898 6710886
0.19025351 0.034437578 0.62580949 6710886
0.19089594 0.034350008 0.62421811 6710886
0.19156049 0.034267422 0.62271732 6710886
0.19227557 0.034194782 0.62139732 6710886
0.19298764 0.034122452 0.62008291 6710886
0.19369663 0.034050416 0.61877388 6710886
0.19440256 0.033978671 0.61747009 6710886
0.19510549 0.033907223 0.61617172 6710886
0.19580549 0.033836078 0.61487883 6710886
0.19650255 0.033765227 0.61359131 6710886
0.19719669 0.033694673 0.61230922 6710886
0.19788796 0.033624418 0.61103249 6710886
0.19857635 0.033554453 0.60976106 6710886
0.19926186 0.033484776 0.60849488 6710886
0.19999275 0.033423446 0.60738039 6710886
0.20078164 0.033372425 0.60645324 6710886
0.20156823 0.033321578 0.60552919 6710886
0.20235243 0.033270884 0.604608 6710886
0.20313424 0.033220343 0.60368955 6710886
0.20391367 0.033169955 0.6027739 6710886
0.20469077 0.033119727 0.60186112 6710886
0.2054655 0.033069644 0.60095102 6710886
0.20623788 0.033019714 0.60004365 7368816
0.20700796 0.032969937 0.59913909 8026746
0.20814377 0.032978624 0.59929693 8618883
0.20928557 0.032988165 0.59947032 8618883
0.21042798 0.032997705 0.59964371 9276813
0.21157111 0.033007257 0.59981728 9276813
0.21271482 0.033016805 0.59999079 9276813
0.21385922 0.03302636 0.60016441 9276813
0.2150043 0.033035923 0.60033822 9276813
0.21615 0.033045489 0.60051203 9276813
0.21729639 0.033055063 0.60068601 9276813
0.21844344 0.033064641 0.60086006 9276813
0.21959116 0.033074223 0.60103422 9276813
0.22073954 0.033083815 0.60120851 9276813
0.22188857 0.033093404 0.60138279 9276813
0.2230383 0.033103008 0.60155731 9276813
0.2241887 0.033112615 0.6017319 9276813
0.22533974 0.033122227 0.60190654 9276813
0.22649145 0.033131842 0.6020813 9276813
0.22764385 0.033141468 0.60225618 9276813
0.22879688 0.033151094 0.60243112 9276813
0.22995061 0.033160727 0.60260618 9276813
0.23110501 0.033170369 0.60278136 9276813
0.23226009 0.033180013 0.60295665 9276813
0.2334158 0.033189658 0.60313195 9276813
0.23457222 0.033199314 0.60330743 9276813
0.23572931 0.033208977 0.60348302 9276813
0.23688708 0.033218648 0.60365874 9276813
0.23804551 0.033228319 0.60383451 9276813
0.23920462 0.033238001 0.6040104 9276813
0.24036439 0.033247683 0.60418636 9276813
0.24152488 0.033257376 0.60436249 9276813
0.242686 0.03326707 0.60453868 9276813
0.2438478 0.03327677 0.60471493 9276813
0.2450103 0.033286478 0.60489136 9276813
0.24617347 0.03329619 0.60506785 9276813
0.24733733 0.033305909 0.60524446 9276813
0.24850185 0.033315632 0.60542119 9276813
0.24966705 0.033325363 0.60559797 9276813
0.25083295 0.033335097 0.60577488 9276813
0.25199953 0.033344839 0.60595191 9276813
0.25316676 0.033354584 0.60612899 9276813
0.25433472 0.033364337 0.60630625 9276813
0.25550333 0.033374097 0.60648358 9276813
0.25667262 0.033383861 0.60666102 9276813
0.2769357 0.035866406 0.65177453 8618883
0.27782854 0.035829898 0.65111113 8618883
0.27871966 0.035793472 0.65044916 8618883
0.27960894 0.035757117 0.6497885 8618883
0.28049639 0.035720833 0.64912915 8618883
0.28138202 0.035684623 0.64847112 8618883
0.28226587 0.035648488 0.64781445 8618883
0.28314799 0.035612427 0.64715916 8618883
0.28402829 0.035576437 0.64650518 8618883
0.2849068 0.035540521 0.64585251 8158332
0.28160995 0.034986164 0.63577855 6776679
0.28190964 0.034881316 0.63387322 6776679
0.28220758 0.034777094 0.63197929 6776679
0.28250375 0.034673497 0.63009667 6776679
0.28279811 0.034570508 0.62822515 6776679
0.28309071 0.034468133 0.62636471 6776679
0.28338164 0.034366362 0.6245153 6776679
0.28367081 0.034265187 0.62267673 6776679
0.28395826 0.034164604 0.62084889 6776679
0.28424406 0.034064613 0.61903185 6776679
0.2845282 0.033965208 0.61722541 6776679
0.28481072 0.033866379 0.61542952 6776679
0.28509155 0.033768125 0.613644 6776679
0.2853708 0.03367044 0.61186886 6776679
0.28612971 0.033629887 0.61113191 9276813
0.28731704 0.033639807 0.61131215 9276813
0.28850505 0.033649728 0.61149246 9276813
0.28969377 0.033659656 0.61167288 9276813
0.29088324 0.033669598 0.61185354 9276813
0.29207346 0.033679545 0.61203432 9276813
0.30643421 0.035202421 0.63970846 9276813
0.30767924 0.035212819 0.63989741 9276813
0.30892503 0.035223227 0.64008653 9276813
0.31017151 0.035233635 0.64027566 9276813
0.31141877 0.035244051 0.64046496 9276813
0.31266674 0.035254475 0.64065439 9276813
0.31391549 0.035264906 0.64084393 9276813
0.31516492 0.03527534 0.64103353 9276813
0.3164151 0.035285778 0.64122325 9276813
0.31766608 0.035296232 0.64141315 9276813
0.31891775 0.035306685 0.64160311 9276813
0.32017016 0.035317142 0.64179319 9276813
0.32142332 0.03532761 0.64198339 9276813
0.32267725 0.035338081 0.64217371 8684676
0.32313937 0.035262078 0.64079255 6842472
0.32340172 0.035164893 0.63902646 6842472
0.32366261 0.03506824 0.63727003 6842472
0.32392207 0.034972116 0.63552326 6842472
0.32418016 0.034876525 0.63378614 6842472
0.32443684 0.034781456 0.6320585 6842472
0.32469216 0.034686904 0.63034028 6842472
0.32494611 0.034592867 0.62863141 6842472
0.32519865 0.034499332 0.62693173 6842472
0.32544985 0.034406312 0.62524128 6842472
0.32569969 0.034313783 0.62355983 6842472
0.32594818 0.034221753 0.62188745 6842472
0.32619536 0.034130219 0.62022406 6842472
0.32644132 0.034039181 0.61856967 6842472
0.32689458 0.033970308 0.61731809 8684676
0.32810608 0.033980425 0.61750197 9276813
0.32931828 0.033990551 0.61768597 9276813
0.3305313 0.034000687 0.61787021 9276813
0.331745 0.034010831 0.61805451 9276813
0.33295941 0.034020979 0.61823893 9276813
0.17439874 0.038282651 0.67359805 6710886
0.17506811 0.038163636 0.67150396 6710886
0.17573331 0.038045354 0.66942275 6710886
0.17639443 0.03792781 0.66735452 6710886
0.17705142 0.037810981 0.66529888 6710886
0.17770442 0.037694879 0.66325599 6710886
0.17835343 0.037579484 0.66122556 6710886
0.17899844 0.03746479 0.65920746 6710886
0.17963956 0.0373508 0.65720177 6710886
0.18027677 0.037237495 0.65520817 6710886
0.18091013 0.03712488 0.65322661 6710886
0.18153967 0.037012942 0.65125704 6710886
0.18217996 0.036904622 0.64935112 6710886
0.18286787 0.036807273 0.6476382 6710886
0.18355219 0.036710437 0.64593434 6710886
0.18423291 0.036614109 0.64423943 6710886
0.18491004 0.036518283 0.64255333 6710886
0.18558364 0.036422957 0.640876 6710886
0.1862537 0.036328122 0.63920736 6710886
0.18692024 0.036233768 0.63754719 6710886
0.18758333 0.036139909 0.63589567 6710886
0.18824297 0.036046527 0.63425261 6710886
0.18889926 0.035953637 0.63261813 6710886
0.18955213 0.035861213 0.63099194 6710886
0.19020167 0.035769269 0.62937415 6710886
0.19089364 0.035686348 0.62791508 6710886
0.19161607 0.035610069 0.62657291 6710886
0.19233546 0.035534114 0.62523651 6710886
0.19305177 0.03545849 0.62390584 6710886
0.19376493 0.035383161 0.62258041 6710886
0.19447501 0.035308145 0.62126046 6710886
0.1951821 0.035233445 0.61994612 6710886
0.19588622 0.035159066 0.61863738 6710886
0.1965874 0.035085 0.61733419 6710886
0.19728559 0.035011247 0.61603642 6710886
0.19798084 0.034937795 0.61474401 6710886
0.1986732 0.034864657 0.61345714 6710886
0.19945045 0.034807142 0.61244512 6710886
0.20024671 0.034753561 0.61150235 6710886
0.20104067 0.03470017 0.61056292 6710886
0.20183219 0.034646943 0.60962635 6710886
0.20262125 0.034593873 0.60869259 6710886
0.20340796 0.034540974 0.6077618 6710886
0.20419222 0.034488231 0.60683376 6710886
0.20497411 0.034435652 0.60590863 6710886
0.20575362 0.03438323 0.60498625 6710886
0.20653075 0.034330968 0.60406667 6710886
0.20744367 0.034301709 0.60355186 6710886
0.20839946 0.034279805 0.60316646 6710886
0.20935404 0.034257933 0.60278159 6710886
0.21030739 0.034236088 0.6023972 6710886
0.21125953 0.034214269 0.60201329 6710886
0.21221043 0.034192473 0.60162979 6710886
0.21316013 0.03417071 0.60124683 7368816
0.21414056 0.034154065 0.600954 7368816
0.21524762 0.034157682 0.60101765 7368816
0.21635495 0.034161307 0.60108143 7368816
0.21746251 0.034164932 0.60114521 8026746
0.21857032 0.03416856 0.60120904 8026746
0.21967837 0.034172192 0.60127294 8026746
0.22078665 0.034175821 0.60133678 8026746
0.22189517 0.034179453 0.60140067 8026746
0.22300392 0.034183081 0.60146457 8026746
0.2241129 0.034186713 0.60152847 8026746
0.22522953 0.034191471 0.60161215 8026746
0.22638065 0.034201391 0.60178673 8026746
0.22753243 0.034211323 0.60196143 8026746
0.2286849 0.034221258 0.60213625 8026746
0.22983803 0.034231197 0.60231113 8026746
0.23099183 0.03424114 0.60248613 8026746
0.23214628 0.03425109 0.60266119 8026746
0.23330143 0.034261052 0.60283643 8618883
0.23445724 0.034271013 0.60301173 8618883
0.23561373 0.034280982 0.60318714 8618883
0.23677088 0.034290954 0.60336262 8618883
0.23792873 0.034300938 0.60353827 8618883
0.23908721 0.034310922 0.60371393 8618883
0.2402464 0.034320913 0.60388976 8618883
0.24140625 0.034330912 0.60406566 8618883
0.24256679 0.034340918 0.60424173 8618883
0.24372798 0.034350924 0.6044178 8618883
0.24488989 0.034360941 0.60459405 8618883
0.24605243 0.034370963 0.60477036 8618883
0.2472157 0.034380991 0.60494685 8618883
0.2483796 0.034391023 0.60512334 9276813
0.24954419 0.034401059 0.60529995 9276813
0.2507095 0.034411106 0.60547674 9276813
0.25187546 0.034421157 0.60565358 9276813
0.25304207 0.034431212 0.60583049 9276813
0.25420943 0.034441277 0.60600758 9276813
0.25537741 0.034451343 0.60618472 9276813
0.25654608 0.034461416 0.60636193 9276813
0.27685741 0.037031882 0.65159029 8947848
0.2777501 0.0369942 0.65092725 8618883
0.27864099 0.036956593 0.65026557 8618883
0.27953005 0.036919065 0.64960521 8618883
0.28041735 0.036881614 0.64894629 8618883
0.28130287 0.036844242 0.64828873 8618883
0.28218654 0.036806941 0.64763236 8618883
0.28306848 0.036769718 0.64697742 8618883
0.28394857 0.036732566 0.64632374 8618883
0.28482693 0.036695495 0.64567143 8158332
0.28162387 0.036135036 0.63580996 6776679
0.28192353 0.036026742 0.63390446 6776679
0.28222144 0.035919093 0.63201034 6776679
0.28251755 0.035812084 0.63012749 6776679
0.28281191 0.035705712 0.62825584 6776679
0.28310451 0.035599969 0.62639523 6776679
0.28339538 0.035494849 0.62454557 6776679
0.28368452 0.035390347 0.62270683 6776679
0.28397197 0.035286456 0.62087888 6776679
