# .PCD v0.7 - Point Cloud Data file format
VERSION 0.7
FIELDS x y z rgb
SIZE 4 4 4 4
TYPE F F F U
COUNT 1 1 1 1
WIDTH 1115
HEIGHT 1
VIEWPOINT 0 0 0 1 0 0 0
POINTS 1115
DATA ascii
0.12972791 -0.017946551 0.5683977 2368548
0.13074088 -0.017944826 0.5683431 2302755
0.13175604 -0.017943429 0.56829882 2236962
0.13277157 -0.017942103 0.56825686 2302755
0.13379887 -0.017942376 0.5682655 2236962
0.13479672 -0.017938728 0.56814992 2171169
0.13578601 -0.017934002 0.56800026 2236962
0.13677068 -0.017928742 0.56783366 2236962
0.13775678 -0.017923744 0.56767541 2302755
0.13874458 -0.017919041 0.56752646 2236962
0.13976254 -0.017918274 0.56750214 2236962
0.14099155 -0.017944379 0.56832892 5706258
0.11741206 -0.017220436 0.57845497 3346705
0.11817393 -0.017179471 0.57707894 1973790
0.11908755 -0.017161088 0.57646143 2171169
0.11954345 -0.017077636 0.57365817 1973790
0.12027665 -0.01703489 0.57222229 1907997
0.12123787 -0.017024893 0.57188648 1973790
0.12241314 -0.017044868 0.57255745 1973790
0.1230996 -0.016997015 0.57095003 1184274
0.1236184 -0.016927 0.56859815 1579032
0.12449758 -0.016907079 0.56792897 2302755
0.12545261 -0.016897699 0.56761384 2500134
0.12644365 -0.016893281 0.56746548 2434341
0.12743755 -0.016889313 0.56733221 2434341
0.1284219 -0.016884154 0.56715888 2368548
0.12941228 -0.016879864 0.56701475 2368548
0.13040836 -0.016876377 0.56689763 2368548
0.13138537 -0.016870495 0.56670004 2368548
0.13236986 -0.016865658 0.56653756 2368548
0.13337472 -0.016863469 0.56646407 2368548
0.13438419 -0.016861893 0.56641114 2434341
0.135383 -0.016859014 0.5663144 2434341
0.13638547 -0.016856631 0.56623435 2434341
0.13739672 -0.016855361 0.56619167 2500134
0.13840991 -0.016854344 0.56615752 2565927
0.13944301 -0.016855748 0.56620473 2631720
0.14054058 -0.01686487 0.56651109 2434341
0.14188023 -0.016902698 0.56778181 3741463
0.11638771 -0.016179457 0.57855099 5048328
0.11707293 -0.016130049 0.57678419 1973790
0.11798712 -0.016112778 0.57616663 2302755
0.11831252 -0.016016105 0.57270974 1513239
0.11908536 -0.015981151 0.57145989 1776411
0.11991083 -0.015953802 0.5704819 2171169
0.12090465 -0.015949124 0.57031465 2565927
0.12196438 -0.015953146 0.57045847 2434341
0.1226087 -0.01590322 0.56867319 1118481
0.12334435 -0.015865872 0.56733763 2105376
0.12426174 -0.015852321 0.56685311 2368548
0.12521379 -0.015843377 0.56653327 2434341
0.12617752 -0.015836045 0.56627113 2434341
0.12714757 -0.015829617 0.56604123 2434341
0.12811528 -0.015823003 0.56580478 2368548
0.12908337 -0.01581654 0.56557363 2368548
0.13006112 -0.015811352 0.56538814 2368548
0.1310401 -0.015806394 0.56521082 2368548
0.13202584 -0.01580232 0.56506515 2368548
0.13304409 -0.015802171 0.56505984 2434341
0.13408567 -0.015804775 0.56515294 2565927
0.13512588 -0.015807178 0.56523889 2631720
0.13614945 -0.015807614 0.56525445 2631720
0.13719708 -0.015810816 0.56536895 2631720
0.13827232 -0.015817128 0.56559467 2631720
0.13934909 -0.015823523 0.56582332 2434341
0.140475 -0.015835363 0.56624675 2302755
0.1416752 -0.015855348 0.56696135 2236962
0.14309293 -0.015899215 0.56852996 2171169
0.1452906 -0.016028501 0.57315302 3873049
0.11605823 -0.015092774 0.57691318 1447446
0.11690991 -0.015068389 0.57598102 2236962
0.11780024 -0.015049371 0.57525408 1381653
0.11809134 -0.014954799 0.57163912 1315860
0.1188876 -0.014925283 0.57051092 1842204
0.11981165 -0.014912181 0.57001007 2302755
0.12083968 -0.01491213 0.57000816 2565927
0.12174797 -0.01489743 0.56944627 1710618
0.12226218 -0.01483516 0.56706601 1513239
0.12310244 -0.014813157 0.56622493 2171169
0.12401279 -0.014799881 0.56571746 2368548
0.12497441 -0.01479289 0.56545025 2500134
0.12593269 -0.01478562 0.56517237 2434341
0.12688218 -0.014777443 0.56485981 2434341
0.12782797 -0.014768968 0.56453586 2434341
0.1287818 -0.014761548 0.56425226 2434341
0.12974647 -0.01475548 0.56402028 2368548
0.13072066 -0.01475058 0.563833 2434341
0.13169262 -0.014745505 0.56363899 2368548
0.13268562 -0.014742847 0.56353736 2434341
0.13377073 -0.014750386 0.56382555 2368548
0.13498498 -0.014771942 0.56464952 2434341
0.13609435 -0.014781782 0.56502569 2631720
0.13712586 -0.014783086 0.56507552 2565927
0.13816936 -0.014785651 0.56517357 2631720
0.13922317 -0.014789276 0.56531209 2565927
0.1403164 -0.014797002 0.56560743 2500134
0.14150868 -0.014814989 0.56629497 2565927
0.1425873 -0.014820904 0.56652105 2500134
0.14373495 -0.014833855 0.56701612 2171169
0.14547113 -0.014906934 0.56980956 1842204
0.11509908 -0.014061879 0.57732314 986895
0.11584764 -0.014026396 0.57586634 1842204
0.11676699 -0.014012039 0.57527691 2302755
0.11762273 -0.013990368 0.57438719 855309
0.11803734 -0.013917067 0.57137775 723723
0.11887102 -0.013894016 0.57043135 1644825
0.11980791 -0.01388332 0.56999224 2039583
0.12054786 -0.01385018 0.56863165 1447446
0.12116116 -0.013803169 0.56670159 1776411
0.12197649 -0.013779771 0.56574094 2039583
0.12286995 -0.013765513 0.56515557 2302755
0.1237942 -0.013754911 0.56472027 2434341
0.12475961 -0.013749017 0.56447834 2500134
0.12571783 -0.013742436 0.56420809 2500134
0.12666519 -0.01373478 0.5638938 2434341
0.1276004 -0.01372594 0.56353086 2434341
0.12854411 -0.013718145 0.56321084 2434341
0.12948447 -0.013710122 0.56288141 2434341
0.13043699 -0.013703497 0.56260943 2434341
0.13139893 -0.013697959 0.56238204 2434341
0.13236041 -0.013692457 0.5621562 2368548
0.13331659 -0.013686495 0.5619114 2368548
0.13433155 -0.013686611 0.56191617 2236962
0.13579276 -0.013731852 0.56377357 2236962
0.13681841 -0.013732702 0.5638085 2434341
0.13790005 -0.013739119 0.56407195 2565927
0.13887082 -0.013734477 0.56388134 2434341
0.13984439 -0.013730177 0.56370479 2236962
0.14087585 -0.01373158 0.56376243 2171169
0.1421636 -0.013757768 0.56483757 2236962
0.14326738 -0.013765905 0.56517166 2368548
0.14449441 -0.013785685 0.56598377 2302755
0.14630437 -0.013860414 0.5690518 2039583
0.11482669 -0.012989446 0.57595688 1250067
0.1156231 -0.012962231 0.57475019 1907997
0.11653513 -0.012948347 0.57413459 2302755
0.11740224 -0.012929762 0.57331049 1381653
0.11797959 -0.012879869 0.57109821 1381653
0.11866532 -0.012842567 0.56944424 1579032
0.11929074 -0.012799435 0.56753176 1579032
0.12007538 -0.012773977 0.56640291 1776411
0.12092426 -0.012755723 0.56559354 2105376
0.12180734 -0.012741354 0.56495643 2171169
0.12270325 -0.012728553 0.56438881 2302755
0.12362662 -0.012718788 0.56395584 2434341
0.12456711 -0.01271093 0.56360739 2500134
0.12551728 -0.012704178 0.563308 2500134
0.12646544 -0.012697334 0.56300455 2500134
0.12741242 -0.012690481 0.56270069 2500134
0.12835506 -0.012683305 0.56238252 2500134
0.12928468 -0.012674969 0.56201285 2500134
0.13022861 -0.012668153 0.56171066 2434341
0.13116674 -0.012660882 0.56138825 2434341
0.13210025 -0.012653282 0.56105125 2500134
0.13305549 -0.01264786 0.56081086 2500134
0.13400619 -0.012642093 0.56055516 2500134
0.13496085 -0.012636784 0.56031972 2434341
0.13600123 -0.012639519 0.56044102 2236962
0.13742751 -0.012677814 0.56213903 2171169
0.13847747 -0.012681087 0.56228417 2171169
0.13947454 -0.012679504 0.56221396 2236962
0.14051901 -0.012682221 0.56233442 2565927
0.14159206 -0.012687461 0.56256676 2565927
0.14275353 -0.012700492 0.56314456 2368548
0.14401904 -0.012722529 0.56412172 2105376
0.14524217 -0.012740541 0.56492037 2368548
0.14654906 -0.012765598 0.5660314 2039583
0.11414681 -0.011988021 0.57777542 2491396
0.11466114 -0.011933059 0.57512647 986895
0.11539377 -0.011901599 0.57361019 1579032
0.11615624 -0.01187375 0.57226795 1579032
0.11676219 -0.01183053 0.57018495 1513239
0.11752053 -0.011803372 0.56887603 1513239
0.11829125 -0.011777917 0.56764919 1513239
0.1190932 -0.011755981 0.56659198 1776411
0.11993931 -0.011738742 0.56576109 1973790
0.12080336 -0.011723532 0.56502807 2105376
0.12168139 -0.011709925 0.56437224 2236962
0.122573 -0.011697838 0.56378973 2236962
0.12347753 -0.011687174 0.56327569 2368548
0.12439462 -0.011677862 0.56282693 2434341
0.12532702 -0.011670128 0.56245416 2434341
0.12626643 -0.011663165 0.56211859 2500134
0.12721813 -0.011657437 0.56184256 2500134
0.12818412 -0.011653102 0.56163359 2500134
0.12914319 -0.011648209 0.56139779 2565927
0.13007215 -0.011640698 0.56103575 2236962
0.13099091 -0.011632398 0.56063575 2434341
0.13192478 -0.011625555 0.56030595 2500134
0.13286799 -0.011619634 0.56002057 2500134
0.13380809 -0.011613533 0.55972654 2500134
0.1347536 -0.011607988 0.55945927 2565927
0.1357099 -0.011603449 0.55924052 2565927
0.13669373 -0.011601313 0.55913758 2631720
0.13777842 -0.011607706 0.55944568 2434341
0.13905044 -0.011629674 0.56050444 2434341
0.14026998 -0.011646966 0.56133789 2368548
0.14141303 -0.011657705 0.56185544 2631720
0.14247322 -0.011661509 0.56203878 2631720
0.14353894 -0.011665708 0.5622412 2565927
0.1447354 -0.011680401 0.5629493 2302755
0.14607024 -0.011705977 0.56418198 2236962
0.14795274 -0.011774786 0.56749827 1973790
0.11398084 -0.010929669 0.57693529 197379
0.1145303 -0.01088297 0.57447022 789516
0.11520623 -0.010849018 0.57267797 986895
0.11583407 -0.01081118 0.57068068 1184274
0.11657022 -0.010784029 0.56924748 1513239
0.11736774 -0.01076298 0.56813639 1644825
0.11817544 -0.010743221 0.56709343 1644825
0.11899588 -0.010724951 0.56612897 1776411
0.11983448 -0.010708612 0.56526655 1842204
0.12069155 -0.010694187 0.5645051 2039583
0.12155654 -0.010680701 0.56379318 2105376
0.12243333 -0.010668465 0.56314731 2236962
0.12332977 -0.010658128 0.56260169 2302755
0.12423585 -0.010648787 0.56210858 2368548
0.12514254 -0.01063965 0.56162626 2368548
0.12606888 -0.010632315 0.56123906 2434341
0.1270079 -0.01062616 0.56091416 2500134
0.12797265 -0.010622235 0.56070703 2565927
0.12898783 -0.010622528 0.56072247 2631720
0.1299755 -0.010620567 0.56061894 2236962
0.13089596 -0.010613185 0.5602293 2302755
0.13183774 -0.010607634 0.55993629 2236962
0.13276702 -0.010601168 0.55959499 2236962
0.13369752 -0.010594898 0.559264 2236962
0.13462265 -0.010588299 0.55891562 2434341
0.13558717 -0.010584872 0.55873477 2434341
0.13656321 -0.010582389 0.5586037 2500134
0.13757494 -0.010582687 0.55861944 2500134
0.13868816 -0.010590733 0.55904412 2500134
0.13991682 -0.010607413 0.5599246 2565927
0.14104576 -0.010616348 0.56039625 2368548
0.14222214 -0.010628701 0.56104833 2565927
0.14332677 -0.010635555 0.56141013 2565927
0.14442952 -0.010642176 0.56175959 2631720
0.14560987 -0.010654381 0.56240386 2302755
0.14721809 -0.010697508 0.5646804 1907997
0.14937684 -0.010779772 0.56902277 3741206
0.11387584 -0.0098796394 0.57640386 197379
0.11441694 -0.0098367501 0.57390159 789516
0.11503547 -0.0098012285 0.57182914 855309
0.11571558 -0.009771538 0.57009691 1184274
0.11647028 -0.0097486144 0.5687595 1447446
0.11727045 -0.0097298631 0.56766552 1579032
0.11808237 -0.0097124027 0.56664681 1644825
0.11890219 -0.0096958866 0.56568325 1710618
0.1197368 -0.0096808476 0.56480581 1842204
0.12057622 -0.0096664475 0.56396568 1973790
0.12142422 -0.0096529713 0.56317943 1973790
0.12228872 -0.0096410196 0.56248212 2171169
0.12317743 -0.0096311579 0.56190675 2236962
0.12406658 -0.0096214898 0.56134272 2302755
0.12496581 -0.0096127549 0.5608331 2368548
0.12587586 -0.0096049849 0.5603798 2368548
0.12680615 -0.0095988717 0.56002313 2500134
0.12775822 -0.0095944908 0.55976754 2500134
0.12874331 -0.0095926393 0.55965948 2565927
0.12980324 -0.0095963487 0.55987591 2500134
0.13089319 -0.009602203 0.5602175 2236962
0.13185802 -0.0095988596 0.56002241 2236962
0.13277699 -0.0095922537 0.55963701 1842204
0.13369548 -0.009585714 0.55925548 2039583
0.1346285 -0.0095803058 0.55893993 2039583
0.13558267 -0.0095764715 0.55871624 2236962
0.13653834 -0.0095727984 0.55850196 2434341
0.13754696 -0.0095728654 0.55850583 2500134
0.13856354 -0.009573481 0.55854177 2565927
0.13969404 -0.0095819011 0.55903304 2434341
0.14089468 -0.0095949788 0.55979598 2631720
0.14194787 -0.0095978985 0.55996633 2631720
0.14309333 -0.0096069733 0.56049579 2500134
0.14425582 -0.0096170548 0.56108397 2565927
0.1453945 -0.00962542 0.56157202 2565927
0.14679745 -0.0096510435 0.56306696 1973790
0.14853129 -0.0096979188 0.5658018 1842204
0.11378904 -0.008832939 0.57596445 263172
0.11431236 -0.0087932581 0.57337701 592137
0.11491163 -0.0087600797 0.57121354 789516
0.11562177 -0.0087358672 0.56963474 1184274
0.11638734 -0.0087162321 0.56835443 1381653
0.11718047 -0.0086989868 0.56722993 1513239
0.11798649 -0.0086829886 0.56618673 1644825
0.11880303 -0.0086680325 0.56521147 1776411
0.11963224 -0.008654247 0.56431258 1776411
0.12047047 -0.0086413417 0.56347108 1907997
0.12131334 -0.0086289821 0.56266516 1907997
0.12215573 -0.0086167948 0.56187046 2105376
0.12303101 -0.0086071072 0.56123877 2171169
0.1239062 -0.0085975733 0.56061709 2171169
0.12479474 -0.0085891113 0.56006533 2302755
0.12569459 -0.0085815582 0.55957282 2368548
0.12661564 -0.0085755615 0.55918181 2500134
0.12756932 -0.008571852 0.55893987 2565927
0.12853432 -0.0085689547 0.55875099 2565927
0.1295379 -0.0085686548 0.55873144 2500134
0.13074002 -0.0085813906 0.55956191 2434341
0.13176984 -0.0085827103 0.55964792 2565927
0.13272192 -0.0085789831 0.55940491 2500134
0.13363889 -0.0085730609 0.55901873 2368548
0.13456345 -0.0085677095 0.55866981 2434341
0.1354731 -0.0085614966 0.55826467 2500134
0.13641757 -0.0085575599 0.55800796 2565927
0.13740472 -0.008556339 0.55792832 2631720
0.13839978 -0.0085556228 0.55788165 2631720
0.13946065 -0.0085589569 0.55809909 2631720
0.14059928 -0.0085669812 0.5586223 2500134
0.14179161 -0.0085781403 0.55934995 2631720
0.14287369 -0.0085825184 0.5596354 2565927
0.14408326 -0.0085944403 0.56041282 2434341
0.14525771 -0.0086041149 0.56104368 2565927
0.14645351 -0.0086149126 0.56174773 2171169
0.1479934 -0.008645663 0.56375283 1907997
0.14984007 -0.0086937919 0.56689119 3609877
0.1134134 -0.0078396359 0.57935399 2359553
0.11369666 -0.0077874423 0.57549685 328965
0.11422037 -0.0077525135 0.57291561 526344
0.11482686 -0.0077237794 0.57079214 921102
0.11554473 -0.0077029816 0.56925517 1184274
0.1163065 -0.0076854513 0.56795967 1381653
0.11709072 -0.007669698 0.56679547 1513239
0.11788595 -0.0076549314 0.56570423 1644825
0.11870009 -0.0076416363 0.5647217 1776411
0.11953111 -0.0076296455 0.56383556 1842204
0.12036932 -0.0076183118 0.562998 1842204
0.12120882 -0.0076072481 0.5621804 1907997
0.12204619 -0.0075962362 0.56136662 1907997
0.12289482 -0.0075861006 0.56061757 2105376
0.12375627 -0.0075769145 0.55993873 2105376
0.12463334 -0.0075688264 0.55934101 2302755
0.12552433 -0.0075617065 0.55881482 2368548
0.12644325 -0.0075563695 0.55842042 2500134
0.12738281 -0.0075523406 0.55812269 2565927
0.12834407 -0.0075496514 0.55792397 2565927
0.12930979 -0.007547264 0.55774754 2565927
0.13036171 -0.0075499057 0.55794275 2368548
0.13158409 -0.0075623039 0.55885899 2565927
0.13259704 -0.0075625693 0.5588786 2565927
0.13353483 -0.0075585754 0.55858344 2368548
0.13440697 -0.0075509534 0.55802017 2105376
0.13527854 -0.007543413 0.55746293 2434341
0.13624027 -0.0075409748 0.55728275 2631720
0.137247 -0.0075410441 0.55728787 2631720
0.13826615 -0.0075417901 0.55734301 2631720
0.13930476 -0.0075435792 0.55747521 2631720
0.14038903 -0.0075477972 0.55778694 2631720
0.14153424 -0.0075552086 0.55833465 2631720
0.14264575 -0.0075607286 0.55874258 2565927
0.14381115 -0.007569008 0.55935442 2500134
0.14509174 -0.0075831921 0.56040263 2236962
0.1463857 -0.0075978735 0.56148762 2039583
0.1478626 -0.0076217828 0.56325454 2039583
0.14951102 -0.0076541482 0.56564635 2105376
0.11318776 -0.0067808335 0.57820135 65793
0.11360566 -0.0067437147 0.57503623 394758
0.11412792 -0.0067134071 0.57245189 526344
0.11472832 -0.0066881976 0.57030231 921102
0.11545377 -0.0066706622 0.56880707 1184274
0.11622013 -0.0066557783 0.5675379 1315860
0.11699853 -0.0066418378 0.56634921 1513239
0.11778803 -0.0066287639 0.56523436 1579032
0.11859783 -0.006617046 0.56423521 1710618
0.11943176 -0.0066068638 0.56336695 1907997
0.1202765 -0.0065974453 0.56256384 1842204
0.12111803 -0.0065880101 0.56175929 1776411
0.12194167 -0.0065777665 0.56088585 1776411
0.12278409 -0.0065686963 0.56011242 1907997
0.12363535 -0.0065602432 0.55939162 2105376
0.12450033 -0.0065526492 0.55874407 2171169
0.12537755 -0.0065458156 0.55816138 2302755
0.12629256 -0.0065410491 0.55775493 2434341
0.12722506 -0.0065372563 0.55743152 2500134
0.12816691 -0.0065339995 0.55715382 2565927
0.12912814 -0.0065317736 0.55696404 2565927
0.13012338 -0.0065312893 0.55692273 2631720
0.13129614 -0.0065396545 0.55763602 2434341
0.13237208 -0.0065431069 0.55793041 2500134
0.13329533 -0.006539016 0.5575816 2236962
0.1341814 -0.0065331766 0.55708367 2302755
0.13510881 -0.0065294225 0.55676353 2631720
0.13610972 -0.0065292488 0.55674875 2631720
0.1371361 -0.0065302905 0.55683756 2631720
0.13818553 -0.0065324069 0.55701804 2631720
0.1392028 -0.0065329839 0.55706722 2631720
0.14027086 -0.006535918 0.55731744 2500134
0.1414289 -0.0065429742 0.55791909 2302755
0.14253077 -0.00654735 0.55829221 2565927
0.14364575 -0.0065522627 0.55871111 2434341
0.14495926 -0.0065660989 0.55989093 1973790
0.14636359 -0.0065838289 0.5614028 2105376
0.14768416 -0.0065975739 0.5625748 2105376
0.14902009 -0.0066118129 0.56378895 2236962
0.11306612 -0.0057314625 0.57757998 263172
0.11350618 -0.0057012234 0.57453269 394758
0.11401995 -0.0056752008 0.57191032 526344
0.11463312 -0.0056545488 0.56982911 986895
0.11537278 -0.0056404471 0.56840807 1184274
0.11613438 -0.0056276573 0.56711918 1315860
0.11690576 -0.0056155608 0.56590015 1447446
0.11769024 -0.0056042974 0.5647651 1513239
0.11849972 -0.0055944072 0.56376845 1776411
0.11934603 -0.0055864099 0.56296253 1907997
0.12021593 -0.0055796425 0.56228054 1776411
0.12106895 -0.005572211 0.56153166 1579032
0.12187456 -0.0055627394 0.56057715 1513239
0.1226943 -0.0055540628 0.55970281 1842204
0.12353451 -0.0055464474 0.55893534 1973790
0.12439287 -0.0055397637 0.55826181 2105376
0.12526639 -0.0055338568 0.55766654 2236962
0.12616806 -0.0055292775 0.55720508 2368548
0.1270822 -0.0055253129 0.55680555 2434341
0.12801884 -0.0055223815 0.55651015 2500134
0.12896504 -0.0055199042 0.55626053 2565927
0.12993701 -0.0055185598 0.55612504 2631720
0.13097227 -0.0055199037 0.55626047 2434341
0.1321495 -0.0055271653 0.55699223 2500134
0.13310353 -0.0055250525 0.55677933 2500134
0.13406938 -0.0055234581 0.55661863 2500134
0.13502334 -0.0055214008 0.55641133 2565927
0.13599049 -0.0055199093 0.556261 2631720
0.13703763 -0.005521663 0.55643773 2631720
0.13809961 -0.0055239843 0.55667168 2631720
0.13909589 -0.005523663 0.55663931 2631720
0.14016588 -0.005526253 0.55690032 2565927
0.14136761 -0.0055339634 0.55767733 2434341
0.14246446 -0.0055374876 0.55803245 2631720
0.14356051 -0.0055409325 0.55837959 2302755
0.14481173 -0.005550276 0.55932117 2039583
0.1462858 -0.0055679716 0.56110442 2302755
0.14750282 -0.0055757081 0.56188405 2236962
0.14878561 -0.0055858078 0.56290185 2105376
0.15034854 -0.0056062173 0.56495857 3675670
0.11291891 -0.0047268383 0.58219385 4653570
0.11294272 -0.0046842601 0.5769496 394758
0.11339428 -0.0046600387 0.57396632 460551
0.11391316 -0.0046389978 0.57137471 460551
0.11455639 -0.0046233521 0.5694477 986895
0.1153025 -0.0046120998 0.56806177 1118481
0.11606305 -0.0046016187 0.56677085 1184274
0.11681712 -0.0045910659 0.56547105 1381653
0.11760849 -0.004582149 0.56437278 1513239
0.11842638 -0.0045744092 0.56341952 1710618
0.11929165 -0.0045686164 0.56270599 1973790
0.12021189 -0.0045650085 0.56226164 1776411
0.12112495 -0.004561191 0.56179142 789516
0.12186202 -0.0045508635 0.56051946 789516
0.12264633 -0.0045424569 0.559484 1447446
0.12346076 -0.0045352932 0.55860168 1842204
0.12430875 -0.0045294687 0.55788428 1973790
0.1251785 -0.0045245243 0.5572753 2171169
0.12606603 -0.0045202957 0.55675447 2302755
0.12696834 -0.0045166602 0.55630672 2368548
0.12788519 -0.0045135953 0.55592918 2500134
0.12882401 -0.004511347 0.55565226 2565927
0.12978312 -0.0045098383 0.55546647 2631720
0.13078739 -0.00450991 0.55547529 2565927
0.13197088 -0.0045161135 0.55623937 2565927
0.13295813 -0.0045155589 0.55617106 2631720
0.13397962 -0.0045161666 0.55624592 2631720
0.13492584 -0.0045142476 0.55600953 2500134
0.13587399 -0.0045124204 0.55578446 2631720
0.13689598 -0.0045130546 0.55586261 2631720
0.13794865 -0.004514683 0.55606318 2631720
0.13898125 -0.0045156362 0.5561806 2631720
0.14006001 -0.0045180647 0.55647969 2631720
0.1411926 -0.004522183 0.55698693 2565927
0.14234534 -0.0045268834 0.55756587 2434341
0.14353327 -0.0045326296 0.55827361 1907997
0.14477967 -0.0045401291 0.55919731 2171169
0.14615215 -0.0045514512 0.56059182 1907997
0.14747773 -0.0045611672 0.5617885 1973790
0.14867492 -0.0045668064 0.56248307 2171169
0.15021873 -0.0045829439 0.56447071 1842204
0.11235189 -0.0036579687 0.57927036 131586
0.11278699 -0.0036382901 0.57615411 328965
0.11328401 -0.0036209503 0.57340819 526344
0.11383387 -0.0036055977 0.57097697 592137
0.11452363 -0.0035949124 0.56928486 986895
0.11528379 -0.0035866068 0.56796962 855309
0.11601497 -0.0035775544 0.56653607 921102
0.11676551 -0.0035692514 0.56522125 1250067
0.11754528 -0.003561978 0.56406945 1513239
0.11836601 -0.0035560606 0.56313235 1776411
0.11923842 -0.0035517828 0.56245494 2236962
0.12022091 -0.0035508287 0.56230384 2302755
0.12120491 -0.0035499344 0.56216222 1447446
0.12202904 -0.0035444119 0.5612877 657930
0.1227188 -0.0035351096 0.55981457 65793
0.1234425 -0.0035269286 0.55851907 723723
0.12426984 -0.0035218173 0.55770963 1710618
0.12513119 -0.0035177444 0.55706465 2039583
0.12598555 -0.0035135411 0.55639905 2105376
0.12687543 -0.0035103874 0.55589962 2236962
0.12778099 -0.0035077136 0.55547619 2368548
0.12870808 -0.0035056674 0.55515218 2500134
0.12965889 -0.0035042944 0.55493474 2631720
0.13065015 -0.0035040271 0.55489242 2631720
0.13179323 -0.0035078046 0.55549061 2500134
0.13284333 -0.0035090693 0.55569088 2631720
0.13380358 -0.003507959 0.55551505 2565927
0.13478966 -0.0035075378 0.55544835 2500134
0.13575128 -0.0035064905 0.55528253 2631720
0.13678695 -0.0035073578 0.55541986 2631720
0.13784383 -0.003508752 0.55564064 2500134
0.13891289 -0.0035104339 0.55590701 2500134
0.13997546 -0.0035119292 0.55614376 2434341
0.1410863 -0.0035146051 0.55656755 2368548
0.14225203 -0.0035186014 0.55720037 2171169
0.14360213 -0.0035270697 0.55854142 1907997
0.14482191 -0.0035322418 0.55936044 1973790
0.14607798 -0.0035382207 0.56030726 1907997
0.14749368 -0.0035479579 0.56184924 2236962
0.14863242 -0.0035509453 0.56232232 2236962
0.15004188 -0.0035603156 0.56380618 1907997
0.11233138 -0.0026123575 0.57916456 131586
0.11263946 -0.0025953793 0.57540047 263172
0.11315461 -0.0025834385 0.57275319 592137
0.11373866 -0.0025732729 0.57049942 986895
0.11448904 -0.0025670188 0.5691129 1447446
0.11533776 -0.0025630614 0.56823552 921102
0.11599229 -0.0025548961 0.56642526 723723
0.11671495 -0.0025483614 0.56497651 1118481
0.11748007 -0.0025428587 0.56375653 1513239
0.11831351 -0.0025389164 0.56288254 1776411
0.11919771 -0.0025361215 0.56226289 2171169
0.12020552 -0.0025359814 0.56223184 2500134
0.12121136 -0.0025358025 0.5621922 2171169
0.12207656 -0.0025327087 0.56150627 1447446
0.1228564 -0.0025279094 0.56044227 723723
0.12358607 -0.0025221647 0.55916864 526344
0.12429561 -0.0025161055 0.55782533 723723
0.12510107 -0.0025120699 0.5569306 1052688
0.12594193 -0.0025088033 0.55620641 1644825
0.12681612 -0.0025062473 0.55563974 1907997
0.12770942 -0.0025041061 0.55516505 2236962
0.12863311 -0.0025025897 0.55482882 2302755
0.12956966 -0.0025013448 0.55455285 2434341
0.13055208 -0.0025009979 0.5544759 2631720
0.13167369 -0.0025033022 0.55498677 2500134
0.13269885 -0.002503752 0.55508649 2631720
0.13367787 -0.0025033308 0.55499315 2631720
0.13468945 -0.0025035215 0.55503541 2565927
0.13570575 -0.0025037962 0.55509633 2434341
0.13672759 -0.0025041683 0.55517882 2434341
0.13782166 -0.0025058484 0.55555129 2368548
0.13890077 -0.002507234 0.55585849 2236962
0.13998212 -0.0025086401 0.55617023 2236962
0.14105591 -0.0025098915 0.55644768 2236962
0.14221957 -0.0025127132 0.55707324 2105376
0.14360377 -0.0025193642 0.55854779 1907997
0.14486784 -0.0025238299 0.55953783 1973790
0.14606512 -0.0025270781 0.56025797 1907997
0.14742637 -0.0025330991 0.56159282 2368548
0.1485873 -0.0025356195 0.56215161 2368548
0.14990774 -0.0025408091 0.56330216 1907997
0.15137786 -0.0025484487 0.56499588 3609620
0.11210535 -0.0015789486 0.58342642 4587777
0.11245836 -0.0015691863 0.57981926 263172
0.1124991 -0.001555287 0.57468343 328965
0.1130089 -0.0015480671 0.57201564 526344
0.1136726 -0.0015430669 0.57016808 1118481
0.11449967 -0.0015403542 0.56916571 1579032
0.11541449 -0.0015388599 0.56861353 1118481
0.11597567 -0.0015327181 0.56634414 460551
0.11665078 -0.0015281761 0.56466585 1118481
0.1174254 -0.0015250052 0.56349421 1447446
0.11826336 -0.0015227041 0.56264395 1842204
0.11915933 -0.0015211829 0.56208187 2302755
0.12015937 -0.0015210047 0.56201601 2565927
0.12116414 -0.0015208888 0.56197315 2368548
0.12204957 -0.0015192892 0.56138211 1776411
0.12278649 -0.0015158827 0.56012338 1315860
0.12358505 -0.0015132864 0.55916405 1776411
0.12441969 -0.0015111703 0.55838215 1315860
0.12524077 -0.001508925 0.55755252 789516
0.12604186 -0.0015064763 0.55664772 855309
0.12686159 -0.0015042875 0.55583894 1052688
0.12771557 -0.0015025361 0.55519181 1381653
0.12862398 -0.0015014472 0.55478942 1776411
0.12956205 -0.0015007186 0.55452025 1315860
0.13053495 -0.0015004018 0.55440313 2039583
0.13160802 -0.0015012322 0.55470997 2302755
0.13260356 -0.0015011723 0.55468786 2500134
0.13359074 -0.0015010196 0.55463141 2565927
0.13464625 -0.0015016311 0.55485737 2500134
0.13569291 -0.0015021355 0.55504376 2434341
0.13670696 -0.0015022744 0.55509508 2500134
0.1377742 -0.0015029912 0.55535996 2500134
0.13891409 -0.0015044848 0.55591184 2368548
0.13997714 -0.0015051306 0.55615044 2500134
0.14107031 -0.0015060887 0.55650449 2105376
0.14224301 -0.0015078766 0.55716509 1907997
0.14350286 -0.0015105563 0.5581553 1973790
0.14492372 -0.0015148821 0.55975366 1907997
0.14609283 -0.0015165345 0.56036425 2039583
0.14733531 -0.0015189206 0.56124592 1907997
0.1485606 -0.0015210983 0.56205058 1973790
0.14991862 -0.0015245961 0.56334305 1710618
0.15127251 -0.0015280051 0.56460267 1842204
0.11268289 -0.00052410644 0.5809769 131586
0.11236977 -0.00051783305 0.57402277 394758
0.1128959 -0.00051550637 0.57144368 723723
0.11366145 -0.0005143052 0.57011211 1250067
0.11452387 -0.00051355996 0.56928605 1710618
0.11548472 -0.00051326543 0.56895953 1579032
0.11599022 -0.00051097013 0.56641519 394758
0.11660157 -0.00050917716 0.56442767 986895
0.11739046 -0.00050818385 0.56332654 1513239
0.11822494 -0.00050740317 0.5624612 1842204
0.11912742 -0.00050692516 0.56193131 2236962
0.1201148 -0.00050681352 0.56180751 2434341
0.12107603 -0.00050659425 0.56156451 2105376
0.12194072 -0.00050597807 0.56088144 1710618
0.12271196 -0.00050498749 0.55978334 1250067
0.12352669 -0.00050419057 0.5589 1973790
0.12441002 -0.00050368428 0.55833876 1973790
0.1252761 -0.00050311687 0.55770975 1513239
0.12607026 -0.00050227199 0.55677319 1513239
0.12693441 -0.00050171698 0.55615801 1644825
0.12782991 -0.00050129381 0.55568886 1907997
0.12874568 -0.00050095597 0.55531436 1710618
0.1296905 -0.00050073554 0.55507004 1907997
0.13060772 -0.00050041277 0.55471224 1842204
0.13161999 -0.00050045626 0.55476046 2368548
0.13257429 -0.00050028029 0.55456543 2171169
0.13354497 -0.00050016842 0.55444139 2434341
0.13461097 -0.00050041248 0.55471194 2565927
0.13565832 -0.00050058425 0.55490232 2565927
0.13665506 -0.00050056801 0.55488431 2500134
0.13771175 -0.00050076999 0.55510825 2500134
0.13882084 -0.0005011583 0.55553865 2434341
0.13995488 -0.00050163036 0.55606198 2302755
0.14112087 -0.00050220947 0.55670393 1776411
0.1423106 -0.00050286436 0.55742985 1776411
0.14353071 -0.00050361652 0.55826366 1776411
0.14488117 -0.00050481246 0.55958933 2039583
0.14611065 -0.00050557317 0.56043261 2302755
0.14740351 -0.00050654128 0.56150573 1842204
0.14857368 -0.00050707738 0.56210005 2302755
0.14988835 -0.00050809613 0.56322932 1907997
0.15134384 -0.00050957524 0.56486893 1579032
0.11291879 0.00052520365 0.5821932 65793
0.11226828 0.00051736535 0.57350433 394758
0.11287341 0.00051540369 0.57132983 855309
0.11367689 0.00051437505 0.5701896 1315860
0.11456352 0.00051373773 0.5694831 1710618
0.11551143 0.00051338412 0.56909114 2039583
0.11645374 0.00051301206 0.56867868 921102
0.11658725 0.00050911464 0.56435835 526344
0.11735889 0.00050804712 0.56317502 1447446
0.11819841 0.00050728931 0.56233495 1776411
0.1191059 0.0005068336 0.56182981 2302755
0.12008261 0.00050667766 0.56165695 2500134
0.12102024 0.00050636084 0.56130576 1907997
0.12191384 0.00050586654 0.56075782 2039583
0.12272619 0.00050504605 0.55984831 1052688
0.1234889 0.00050403632 0.55872899 1710618
0.12438295 0.00050357473 0.55821729 2039583
0.12524387 0.00050298742 0.55756629 1710618
0.12603801 0.00050214352 0.55663079 1644825
0.12691638 0.00050164579 0.55607903 2039583
0.12783419 0.00050131057 0.55570745 2236962
0.12879744 0.00050115737 0.55553764 1973790
0.1296972 0.00050076138 0.55509871 1776411
0.13061142 0.00050042692 0.55472791 2302755
0.13158864 0.00050033705 0.55462831 2368548
0.13257366 0.00050027797 0.55456281 2302755
0.13352269 0.00050008495 0.55434889 2302755
0.13454439 0.00050016498 0.55443758 2565927
0.13558231 0.00050030375 0.55459142 2434341
0.13662818 0.00050046953 0.55477518 2236962
0.13769379 0.00050070469 0.55503583 2105376
0.13879891 0.00050107908 0.55545086 2171169
0.13996054 0.00050165068 0.55608451 2171169
0.14114703 0.0005023026 0.55680716 2039583
0.14237434 0.00050308951 0.55767947 1973790
0.1435809 0.00050379266 0.55845886 1973790
0.14486487 0.00050475565 0.55952638 2171169
0.14602159 0.00050526502 0.56009102 2368548
0.14731216 0.00050622737 0.56115776 2171169
0.14856544 0.00050704926 0.56206888 2368548
0.14981343 0.00050784211 0.56294775 2105376
0.15121393 0.00050913781 0.56438404 1776411
0.11317806 0.0015792287 0.58352995 2294017
0.11219079 0.0015510247 0.57310849 394758
0.11288419 0.0015463588 0.57138443 986895
0.11369519 0.0015433737 0.57028139 1381653
0.11459313 0.0015416116 0.56963032 1842204
0.11553478 0.0015404638 0.56920618 1447446
0.11641696 0.0015385501 0.56849909 1118481
0.11660959 0.0015276365 0.56446648 263172
0.1173363 0.001523848 0.5630666 1381653
0.11818404 0.0015216829 0.56226659 1842204
0.11907509 0.0015201075 0.56168449 2236962
0.12006788 0.0015198465 0.56158805 2236962
0.12097698 0.0015185394 0.56110507 2171169
0.12189224 0.0015173308 0.56065845 2236962
0.12271241 0.001514968 0.55978543 1250067
0.12344447 0.0015115648 0.55852795 1513239
0.12429329 0.0015096351 0.5578149 2171169
0.12517224 0.0015080993 0.5572474 1907997
0.12604158 0.0015064729 0.55664647 1644825
0.12690738 0.0015048304 0.55603957 1776411
0.12783037 0.0015038867 0.55569082 2302755
0.12881239 0.0015036465 0.55560207 2302755
0.12973495 0.0015027213 0.55526024 1776411
0.13059179 0.0015010552 0.55464458 2039583
0.13155805 0.0015006621 0.55449933 2434341
0.13254836 0.0015005475 0.55445701 2302755
0.13352545 0.0015002859 0.55436033 2105376
0.13452639 0.0015002943 0.55436343 2368548
0.13557503 0.0015008305 0.55456156 2105376
0.13669194 0.0015021092 0.55503404 1907997
0.13777137 0.0015029605 0.55534858 1842204
0.13886376 0.0015039396 0.55571038 1710618
0.14001051 0.0015054892 0.556283 1907997
0.14116193 0.0015070669 0.55686593 1842204
0.14238289 0.0015093592 0.55771297 1973790
0.14357644 0.0015113309 0.55844152 2171169
0.14480023 0.0015135913 0.5592767 2302755
0.14597215 0.0015152817 0.55990136 2236962
0.14724764 0.0015180169 0.56091201 1973790
0.1485078 0.0015205578 0.56185085 1973790
0.14983386 0.0015237341 0.56302452 1776411
0.15115106 0.0015267783 0.56414938 1907997
0.15304634 0.001535582 0.56740236 3609620
0.11216814 0.0025845193 0.5729928 394758
0.11289538 0.0025775202 0.57144105 1052688
0.11372153 0.0025728852 0.57041347 1250067
0.11461291 0.0025697961 0.56972861 1710618
0.11557248 0.0025682773 0.56939191 1842204
0.11642458 0.0025644179 0.56853628 1250067
0.1172057 0.0025590765 0.56735206 394758
0.11733723 0.0025397667 0.56307107 855309
0.11816179 0.0025356608 0.56216073 1710618
0.11906812 0.0025333641 0.56165159 2171169
0.12004285 0.0025325494 0.56147099 2171169
0.12091255 0.0025295513 0.56080627 1907997
0.12179595 0.002526887 0.56021559 2368548
0.12261271 0.0025228953 0.55933064 1513239
0.12338856 0.0025181337 0.55827498 1579032
0.12423591 0.0025148969 0.55755734 1973790
0.12515928 0.0025132385 0.5571897 2105376
0.1260794 0.0025115418 0.55681354 1710618
0.12692304 0.0025083604 0.55610824 1579032
0.12781289 0.0025061353 0.55561489 2236962
0.12876193 0.0025050959 0.55538446 2434341
0.1296766 0.0025034091 0.5550105 2302755
0.13058266 0.0025015837 0.55460578 2039583
0.13153987 0.002500758 0.55442274 2302755
0.1325684 0.0025012905 0.55454081 2039583
0.13356589 0.0025012339 0.55452824 2039583
0.13456309 0.0025011725 0.55451465 1842204
0.13562895 0.0025023792 0.55478215 2105376
0.13676533 0.0025048596 0.55533206 2171169
0.13783109 0.00250602 0.55558932 2236962
0.1389599 0.0025083013 0.55609512 2039583
0.14008863 0.002510549 0.55659342 1907997
0.14125131 0.0025133684 0.55721849 1710618
0.14244159 0.0025166357 0.55794287 1973790
0.1435757 0.0025188718 0.5584386 1907997
0.14480253 0.0025226921 0.55928558 1842204
0.14597702 0.002525554 0.55992007 1907997
0.147277 0.0025305327 0.56102383 1710618
0.14855532 0.0025350738 0.56203061 1907997
0.14990883 0.0025408275 0.56330621 1776411
0.15115227 0.002544651 0.56415391 2105376
0.15271524 0.0025537664 0.56617481 3412241
0.11219069 0.0036190548 0.57310802 263172
0.11289896 0.0036086426 0.57145917 1250067
0.11377048 0.00360359 0.57065904 1381653
0.1146917 0.0036001881 0.57012033 1513239
0.11559374 0.0035962495 0.56949663 1315860
0.11642805 0.0035902925 0.56855327 1644825
0.11719061 0.0035822457 0.56727898 657930
0.11743414 0.0035586101 0.56353611 197379
0.11815258 0.0035496482 0.56211692 1381653
0.11905252 0.0035462454 0.56157804 2236962
0.12001412 0.0035447211 0.56133664 2039583
0.12086374 0.0035399422 0.5605799 1579032
0.12171257 0.0035352197 0.55983204 1710618
0.12257246 0.0035308939 0.559147 1315860
0.12337524 0.0035250068 0.55821472 1250067
0.12421811 0.0035203511 0.55747747 1842204
0.12515278 0.0035183514 0.55716079 2171169
0.12607428 0.0035160158 0.55679095 2039583
0.12692353 0.0035117182 0.55611038 1842204
0.1277993 0.003508216 0.55555576 2039583
0.12872002 0.0035059927 0.55520368 2171169
0.1296576 0.0035042593 0.5549292 1907997
0.13060144 0.0035027207 0.55468553 1907997
0.13155781 0.0035015384 0.55449831 2105376
0.13259831 0.0035025969 0.55466592 2105376
0.13363165 0.0035034514 0.55480123 2039583
0.13463944 0.0035036285 0.5548293 1973790
0.13565348 0.0035039643 0.55488247 2236962
0.13675204 0.0035064623 0.55527806 2368548
0.13782278 0.003508216 0.55555576 2171169
0.13896 0.0035116246 0.55609554 1973790
0.1401428 0.0035161278 0.55680865 1907997
0.14131086 0.0035201991 0.55745339 2039583
0.14249527 0.003524618 0.55815315 2039583
0.14367324 0.0035288166 0.55881804 1776411
0.14487278 0.0035334828 0.55955696 1776411
0.14602524 0.0035369436 0.56010503 1973790
0.14731941 0.0035437657 0.56118536 1907997
0.14856578 0.0035493532 0.56207019 2105376
0.14984514 0.0035556473 0.5630669 2171169
0.15111032 0.0035615226 0.56399733 1710618
0.1527646 0.0035764289 0.56635785 3149069
0.11225095 0.0046555693 0.57341582 197379
0.11295164 0.0046418482 0.57172579 789516
0.11383658 0.0046358788 0.57099056 1513239
0.11475275 0.0046312772 0.57042378 1381653
0.11560683 0.0046242732 0.56956112 921102
0.11640082 0.0046150102 0.56842023 1315860
0.11715103 0.0046041892 0.56708741 723723
0.11788915 0.0045930836 0.5657196 526344
0.11819362 0.0045654187 0.56231219 526344
0.11905072 0.0045593893 0.56156951 1842204
0.11999676 0.0045568389 0.5612554 2039583
0.12086511 0.0045514056 0.56058621 1447446
0.12174796 0.0045466041 0.55999482 1710618
0.12262069 0.004541507 0.559367 1381653
0.12341837 0.004533736 0.55840987 921102
0.12421631 0.0045261006 0.55746943 1513239
0.12510906 0.0045220139 0.55696613 2171169
0.1260335 0.0045191296 0.55661082 2105376
0.12691416 0.0045147329 0.55606931 1907997
0.12780994 0.0045109391 0.55560201 1907997
0.12875141 0.0045088045 0.5553391 1973790
0.12971321 0.0045074085 0.5551672 1907997
0.13065495 0.0045053428 0.55491275 1776411
0.13159618 0.0045032916 0.55466008 1907997
0.13261703 0.0045039747 0.55474424 2302755
0.13366075 0.0045054187 0.5549221 2302755
0.13466759 0.0045056068 0.55494529 2236962
0.13569193 0.0045063738 0.55503976 1973790
0.13680215 0.0045099608 0.55548155 1776411
0.13790096 0.0045131226 0.55587095 1776411
0.13899469 0.004516073 0.55623436 1644825
0.14020447 0.004522725 0.55705369 1776411
0.14131035 0.0045259544 0.55745143 1973790
0.14249904 0.0045317719 0.55816793 2302755
0.14366888 0.0045369118 0.55880105 2105376
0.14490083 0.0045439284 0.55966526 2236962
0.14604619 0.004548151 0.56018537 2105376
0.14728962 0.0045553492 0.56107193 2039583
0.14852452 0.0045621865 0.56191409 2236962
0.14978124 0.0045695971 0.56282681 1907997
0.15112175 0.0045794472 0.56404001 1644825
0.15337442 0.0046166214 0.56861866 3215119
0.11371478 0.0057643438 0.58089358 2425603
0.11300978 0.0056762905 0.57202011 855309
0.11391257 0.0056698564 0.57137173 1118481
0.11482739 0.0056641316 0.57079482 1184274
0.11566537 0.0056547513 0.56984955 855309
0.11645246 0.0056430707 0.56867242 657930
0.11715785 0.0056276699 0.56712043 789516
0.11791084 0.0056148018 0.56582367 789516
0.11850222 0.0055945255 0.56378037 131586
0.11909517 0.0055746674 0.5617792 986895
0.11999143 0.0055692224 0.56123048 1776411
0.12087702 0.0055633774 0.56064147 1710618
0.12175621 0.0055573373 0.56003278 1973790
0.12264612 0.0055518821 0.55948305 1644825
0.12343898 0.0055421586 0.55850315 1184274
0.12424403 0.005533135 0.55759382 1447446
0.12512761 0.0055277259 0.55704874 1776411
0.12602904 0.0055231852 0.55659115 1644825
0.12692918 0.0055186599 0.55613512 1710618
0.12782955 0.0055142161 0.55568731 2039583
0.12878369 0.0055121426 0.55547833 2236962
0.1297805 0.005511913 0.55545521 2171169
0.13071406 0.0055090217 0.55516386 1842204
0.13165328 0.0055064112 0.55490077 1907997
0.13265114 0.0055062734 0.55488688 1842204
0.13369977 0.0055082305 0.55508411 1644825
0.13472882 0.0055093565 0.5551976 1513239
0.13577332 0.0055110939 0.55537266 1710618
0.13692854 0.0055172676 0.55599481 1710618
0.1379934 0.0055197356 0.55624354 1710618
0.13912763 0.0055249236 0.55676633 1776411
0.14028566 0.0055309758 0.55737621 2171169
0.14136136 0.005533719 0.55765265 1973790
0.14251024 0.0055392673 0.5582118 1842204
0.14366755 0.0055450634 0.55879587 1907997
0.14494261 0.0055552917 0.55982661 1776411
0.14605203 0.0055590738 0.56020778 1907997
0.1473448 0.0055697346 0.5612821 1579032
0.14858171 0.0055781528 0.56213045 1776411
0.14985122 0.0055876728 0.56308979 1644825
0.15113889 0.0055977367 0.56410396 1710618
0.15332168 0.0056405971 0.56842315 5311500
0.1137498 0.006814504 0.58107245 2293760
0.11307351 0.0067121265 0.57234269 460551
0.114018 0.0067069409 0.57190055 1118481
0.11490266 0.0066983616 0.57116896 789516
0.11571407 0.0066857017 0.57008946 1118481
0.11655546 0.0066749821 0.56917542 592137
0.11720559 0.0066535925 0.56735152 460551
0.11794592 0.0066376496 0.56599206 592137
0.1186365 0.0066192038 0.56441921 394758
0.11927152 0.006597999 0.56261104 131586
0.12004944 0.0065849903 0.5615018 1052688
0.1208794 0.0065750298 0.56065249 1513239
0.12172954 0.0065663238 0.55991012 1842204
0.1226007 0.0065588849 0.55927581 1842204
0.12343033 0.0065493644 0.55846399 1381653
0.12426738 0.0065403883 0.55769861 1579032
0.12519062 0.0065360568 0.55732924 1710618
0.12612143 0.0065321857 0.55699915 1513239
0.12697171 0.0065242378 0.55632144 1447446
0.12785254 0.0065179723 0.55578721 1776411
0.12878054 0.0065141907 0.55546474 2039583
0.12977117 0.0065136114 0.55541533 2236962
0.13074216 0.0065120617 0.55528319 1973790
0.13174008 0.0065118666 0.55526656 1579032
0.13276216 0.0065128608 0.55535132 1579032
0.13382752 0.0065159467 0.55561447 1907997
0.13485682 0.006517244 0.5557251 1710618
0.13588156 0.0065183039 0.55581546 1842204
0.13699707 0.0065236702 0.55627304 2039583
0.13806666 0.0065267878 0.55653888 1973790
0.13916126 0.0065310337 0.55690092 1907997
0.1403091 0.0065377001 0.55746937 2302755
0.14140432 0.0065418365 0.55782211 1842204
0.14260446 0.0065507344 0.55858082 1842204
0.14377439 0.00655813 0.55921143 1710618
0.14502974 0.006569291 0.56016314 1842204
0.14613633 0.0065736067 0.56053114 1842204
0.14749382 0.0065890709 0.56184977 1644825
0.14866959 0.0065962616 0.56246293 1907997
0.1498991 0.0066057229 0.56326967 1973790
0.15119937 0.0066181542 0.56432968 1513239
0.15384682 0.006688992 0.57037002 5245964
0.11338668 0.0077662114 0.57392788 0
0.11417916 0.0077497168 0.5727089 460551
0.11499772 0.0077352729 0.5716415 855309
0.11576731 0.0077178208 0.57035178 789516
0.11656007 0.0077022077 0.56919795 1052688
0.11729166 0.0076828599 0.56776816 657930
0.11802351 0.0076638642 0.56636435 460551
0.11873575 0.0076439325 0.5648914 526344
0.11946504 0.007625428 0.56352389 263172
0.12012438 0.007602809 0.56185234 592137
0.12089633 0.0075876359 0.56073105 855309
0.12172219 0.0075760703 0.55987632 1381653
0.12259456 0.007567565 0.55924779 1513239
0.12345305 0.00755835 0.55856681 1315860
0.12432058 0.007549833 0.55793738 1513239
0.12522654 0.0075437678 0.55748916 1907997
0.12612829 0.007537547 0.55702943 1907997
0.12699197 0.0075291684 0.55641025 1776411
0.12789613 0.0075233015 0.55597669 1776411
0.12883465 0.0075195315 0.5556981 1776411
0.12980358 0.0075175823 0.55555403 1907997
0.13084504 0.00751983 0.55572015 1644825
0.13188063 0.0075217085 0.55585897 1315860
0.13287535 0.0075212466 0.55582482 1513239
0.13392249 0.0075237355 0.55600876 1973790
0.13493352 0.0075241732 0.55604112 1973790
0.13595627 0.007525255 0.55612105 1907997
0.13703856 0.0075295912 0.55644149 1907997
0.138126 0.0075341458 0.55677807 1776411
0.13924097 0.0075401245 0.55721992 1644825
0.14036418 0.0075464617 0.55768824 1447446
0.14148121 0.0075523779 0.55812544 1842204
0.1426475 0.0075608217 0.55874944 2039583
0.14381509 0.0075692153 0.55936974 2105376
0.14505467 0.0075812545 0.56025946 2236962
0.14619215 0.0075878282 0.56074524 1776411
0.14748223 0.0076021766 0.56180561 1907997
0.14870302 0.0076127825 0.56258941 2039583
0.14994559 0.0076243519 0.56344438 1579032
0.15144806 0.0076488922 0.56525791 1315860
0.15366192 0.0077087921 0.56968457 3215119
0.11405867 0.0088538686 0.57732922 0
0.11431257 0.0087932749 0.57337809 328965
0.11507016 0.0087721646 0.57200158 657930
0.11587165 0.008754747 0.57086581 394758
0.1165904 0.0087314388 0.56934601 526344
0.11736455 0.0087126521 0.56812096 855309
0.11808471 0.0086902166 0.56665802 394758
0.11878815 0.0086669466 0.56514066 657930
0.11956653 0.0086494936 0.56400263 657930
0.12023695 0.0086245909 0.56237882 263172
0.1209884 0.0086058695 0.56115806 526344
0.12178734 0.0085908081 0.56017596 1052688
0.1226585 0.0085810469 0.5595395 1315860
0.12352283 0.0085709719 0.55888253 1250067
0.12438091 0.0085606296 0.55820811 1315860
0.12524162 0.0085506327 0.55755627 1513239
0.12613635 0.0085430983 0.55706501 1710618
0.12703416 0.0085358918 0.55659509 1644825
0.12797257 0.0085315043 0.55630898 1513239
0.12891079 0.0085271737 0.55602658 1447446
0.12987749 0.0085247774 0.55587035 1776411
0.13094606 0.008529054 0.55614918 1973790
0.13198525 0.0085313655 0.55629992 2039583
0.13295616 0.0085292635 0.55616283 1842204
0.13397278 0.0085301027 0.55621755 1776411
0.13502619 0.0085332533 0.55642301 1579032
0.13605855 0.0085350387 0.55653942 1579032
0.13715112 0.0085405456 0.55689853 1644825
0.13827051 0.008547632 0.55736059 1447446
0.13932754 0.0085507883 0.5575664 1579032
0.14049836 0.0085608317 0.55822128 1776411
0.14156596 0.008564489 0.55845976 1907997
0.14269683 0.0085718948 0.55894268 1644825
0.14386466 0.0085814008 0.55956256 1842204
0.14505959 0.0085923793 0.56027842 1644825
0.14630763 0.0086063314 0.56118816 1644825
0.14746028 0.0086145187 0.56172204 1776411
0.14875585 0.0086308857 0.56278926 1447446
0.15009078 0.0086492999 0.56399 1381653
0.15150681 0.008672107 0.56547719 1447446
0.1532522 0.0087133357 0.56816554 3215119
0.11487532 0.009966352 0.58146286 4521984
0.11449187 0.009843193 0.57427746 65793
0.11519642 0.0098149413 0.57262921 460551
0.11605047 0.0097998176 0.57174683 328965
0.11676899 0.0097736157 0.57021815 0
0.11744166 0.0097440677 0.56849426 394758
0.11815082 0.0097180326 0.5669753 263172
0.11888192 0.0096942335 0.56558681 328965
0.11961601 0.0096710818 0.56423604 592137
0.12035751 0.0096489144 0.56294274 592137
0.12112832 0.0096294479 0.56180704 394758
0.12188315 0.0096090455 0.56061667 592137
0.12272274 0.0095956055 0.55983257 1250067
0.12359704 0.0095850769 0.55921829 1315860
0.12443858 0.0095721986 0.55846697 1184274
0.12529477 0.0095606456 0.5577929 1447446
0.12618265 0.0095516741 0.55726951 1513239
0.12711456 0.0095461532 0.55694741 1644825
0.12810831 0.0095453253 0.55689907 1381653
0.12903529 0.0095395744 0.55656356 1052688
0.1299759 0.0095349113 0.55629152 1710618
0.13098948 0.009535633 0.5563336 1776411
0.13202344 0.0095378151 0.55646092 1644825
0.13302729 0.0095378058 0.55646038 1710618
0.13410786 0.0095432559 0.55677837 1447446
0.13518435 0.0095483372 0.55707479 1447446
0.13618657 0.0095481351 0.55706304 1513239
0.13725719 0.0095526986 0.55732924 1842204
0.1383888 0.0095614074 0.55783737 1776411
0.13944893 0.0095650889 0.55805212 1776411
0.14059499 0.0095745688 0.55860525 1776411
0.14164639 0.0095775137 0.55877703 1776411
0.14280939 0.00958791 0.55938357 1710618
0.14398676 0.0095991166 0.56003743 1710618
0.14520979 0.0096131917 0.56085861 1644825
0.14642639 0.0096266493 0.56164372 1842204
0.14756541 0.0096348543 0.56212246 1579032
0.1488948 0.009655294 0.56331497 1644825
0.15023492 0.0096761482 0.56453162 1842204
0.15162443 0.0096998792 0.56591618 1118481
0.15416028 0.0097961379 0.57153213 5048585
0.1150472 0.010932087 0.5770629 2293760
0.11530863 0.010858661 0.57318699 460551
0.11615213 0.010840866 0.57224768 1118481
0.11697317 0.010821306 0.57121521 328965
0.1176824 0.010791836 0.56965959 0
0.11835229 0.010759299 0.56794208 0
0.11901784 0.01072693 0.56623346 197379
0.11971301 0.010697758 0.56469357 263172
0.120456 0.010673316 0.56340337 657930
0.12126196 0.010654816 0.56242687 921102
0.12203129 0.010633432 0.56129807 460551
0.12279576 0.010611979 0.56016564 986895
0.12365364 0.010598883 0.55947435 1315860
0.12452389 0.010587052 0.55884981 1052688
0.12536809 0.010573212 0.5581193 1052688
0.12627316 0.010564686 0.55766922 1315860
0.12721922 0.010559698 0.55740589 1447446
0.1282077 0.010558281 0.55733114 1644825
0.12913904 0.010552216 0.55701101 1381653
0.13010226 0.010548833 0.55683237 1315860
0.13115966 0.010553076 0.55705637 855309
0.13223033 0.010558316 0.55733293 921102
0.13318938 0.010554629 0.55713838 855309
0.13425554 0.010559426 0.55739152 1710618
0.13531798 0.010563857 0.55762547 1447446
0.13629486 0.010561595 0.55750602 1513239
0.13734904 0.010565311 0.55770218 1644825
0.13844493 0.010572158 0.55806363 1644825
0.13955624 0.010580077 0.55848163 1447446
0.14070962 0.010591047 0.55906069 1513239
0.1417639 0.010594455 0.55924058 1644825
0.14288314 0.010602635 0.55967242 1907997
0.14407153 0.010615797 0.56036717 1842204
0.14528173 0.010630371 0.56113648 1776411
0.14647596 0.010643581 0.5618338 1776411
0.1477437 0.010661917 0.56280166 1381653
0.14899522 0.010678839 0.56369489 1381653
0.15034086 0.010702231 0.56492966 1447446
0.15193325 0.010742756 0.56706882 1184274
0.11565581 0.011928626 0.57491279 0
0.11636438 0.011895026 0.57329339 0
0.11705101 0.011859793 0.57159531 460551
0.11787117 0.011838589 0.57057333 657930
0.11869238 0.011817857 0.56957412 263172
0.11929388 0.011775791 0.56754673 0
0.11997994 0.011742718 0.56595272 0
0.12055581 0.011699509 0.56387025 263172
0.12131929 0.011675078 0.56269276 657930
0.12212527 0.011655109 0.56173033 657930
0.12290517 0.011633 0.56066477 592137
0.12376315 0.011618582 0.55996984 1052688
0.12468072 0.011609945 0.55955362 723723
0.12552315 0.011594508 0.55880958 526344
0.1263929 0.01158182 0.55819809 1118481
0.1273388 0.011576254 0.55792981 1118481
