# .PCD v0.7 - Point Cloud Data file format
VERSION 0.7
FIELDS x y z rgb
SIZE 4 4 4 4
TYPE F F F U
COUNT 1 1 1 1
WIDTH 1249
HEIGHT 1
VIEWPOINT 0 0 0 1 0 0 0
POINTS 1249
DATA ascii
0.1273486 0.086268403 0.53802925 65931
0.12826124 0.086268231 0.53802818 65931
0.12917386 0.086268052 0.53802705 65931
0.13008648 0.086267881 0.53802598 4587846
0.10472067 0.091331728 0.56364316 102
0.10471647 0.090501569 0.5585199 102
0.10471235 0.089686364 0.55348897 102
0.10470829 0.088885702 0.5485478 102
0.10470429 0.088099204 0.54369402 102
0.10470036 0.087326497 0.53892535 111
0.10529558 0.087062582 0.53729659 65931
0.10620699 0.087062389 0.5372954 65931
0.10711841 0.087062195 0.53729421 65931
0.10802981 0.087062001 0.53729302 65931
0.10894121 0.087061808 0.53729182 65931
0.1098526 0.087061606 0.53729057 65931
0.110764 0.08706142 0.53728944 65931
0.1116754 0.087061226 0.53728825 65931
0.11258677 0.087061025 0.537287 65931
0.11349815 0.087060831 0.5372858 65931
0.11440954 0.087060645 0.53728467 65931
0.11532089 0.087060437 0.53728336 65931
0.11623228 0.08706025 0.53728223 65931
0.11714364 0.087060057 0.53728104 65931
0.11805499 0.087059855 0.53727978 65931
0.11896634 0.087059662 0.53727859 65931
0.11987771 0.087059475 0.53727746 65931
0.12078906 0.087059289 0.53727627 65931
0.12170038 0.087059073 0.53727496 65931
0.12261172 0.087058879 0.53727376 65931
0.12352309 0.087058708 0.53727269 65931
0.12443445 0.087058529 0.53727162 65931
0.12534581 0.087058358 0.53727055 65931
0.12625715 0.087058187 0.53726947 65931
0.12716849 0.087058 0.53726834 65931
0.12807985 0.087057829 0.53726727 65931
0.1289912 0.087057665 0.53726625 65931
0.12990253 0.087057479 0.53726512 2359657
0.10472695 0.093144245 0.56887209 4594228
0.1047214 0.092288718 0.56364703 102
0.10471719 0.091449849 0.55852371 102
0.10471306 0.090626098 0.55349272 102
0.104709 0.089817047 0.5485515 102
0.10470499 0.089022309 0.54369766 102
0.10470105 0.088241503 0.53892893 102
0.10514691 0.087850019 0.536538 65931
0.10605705 0.087849826 0.53653681 65931
0.10696717 0.087849632 0.53653562 65931
0.10787728 0.087849438 0.53653443 65931
0.1087874 0.087849244 0.53653324 65931
0.1096975 0.087849036 0.53653198 65931
0.11060762 0.08784885 0.53653085 65931
0.11151772 0.087848656 0.53652966 65931
0.11242782 0.087848462 0.53652847 65931
0.11333792 0.087848268 0.53652728 65931
0.11424799 0.08784806 0.53652602 65931
0.1151581 0.087847874 0.53652489 65931
0.11606818 0.08784768 0.5365237 65931
0.11697826 0.087847486 0.53652251 65931
0.11788832 0.087847278 0.53652126 65931
0.11879839 0.087847084 0.53652006 65931
0.11970846 0.08784689 0.53651887 65931
0.12061853 0.087846704 0.53651774 65931
0.12152857 0.087846495 0.53651649 65931
0.12243863 0.087846301 0.5365153 65931
0.12334868 0.087846108 0.5365141 65931
0.12425874 0.087845922 0.53651297 65931
0.12516882 0.08784575 0.5365119 65931
0.12607887 0.087845571 0.53651083 65931
0.12698893 0.087845393 0.53650975 65931
0.12789899 0.087845214 0.53650862 65931
0.12880905 0.087845042 0.53650761 65931
0.12971909 0.087844856 0.53650647 65931
0.10472735 0.094109833 0.5688743 26214
0.10472211 0.093245715 0.56365091 102
0.1047179 0.092398152 0.55852753 102
0.10471377 0.091565855 0.55349648 102
0.1047097 0.090748407 0.5485552 102
0.10470569 0.089945421 0.54370129 102
0.10470174 0.089156501 0.53893244 102
0.10499868 0.088635243 0.53578156 65922
0.10590752 0.08863505 0.53578037 65931
0.10681634 0.088634841 0.53577912 65931
0.1077252 0.088634655 0.53577799 65931
0.10863401 0.088634446 0.53577673 65931
0.10954285 0.08863426 0.5357756 65931
0.11045168 0.088634059 0.53577441 65931
0.1113605 0.088633865 0.53577322 65931
0.11226931 0.088633664 0.53577203 65931
0.11317813 0.08863347 0.53577083 65931
0.11408693 0.088633277 0.53576964 65931
0.11499573 0.088633075 0.53576845 65931
0.11590453 0.088632882 0.53576726 65931
0.11681333 0.08863268 0.53576607 65931
0.11772212 0.088632487 0.53576487 65931
0.11863091 0.088632286 0.53576368 65931
0.11953969 0.088632092 0.53576249 65931
0.12044847 0.088631891 0.5357613 65931
0.12135725 0.088631697 0.5357601 65931
0.12226602 0.088631496 0.53575891 65931
0.12317477 0.088631287 0.53575766 65931
0.12408354 0.088631101 0.53575653 65931
0.1249923 0.088630907 0.53575534 65931
0.1259011 0.088630736 0.53575432 65931
0.12680987 0.08863055 0.53575319 65931
0.12771864 0.088630371 0.53575212 65931
0.12862742 0.088630199 0.53575104 65931
0.12953618 0.088630021 0.53574997 65931
0.10472776 0.095075428 0.5688765 26214
0.10472284 0.094202742 0.56365484 6758
0.10471863 0.093346469 0.5585314 102
0.10471448 0.092505619 0.55350024 102
0.10471041 0.091679782 0.54855889 102
0.10470639 0.09086854 0.54370493 102
0.10470244 0.090071537 0.53893608 102
0.10485084 0.089418247 0.53502721 65922
0.10575841 0.089418054 0.53502601 65931
0.10666596 0.089417852 0.53502482 65931
0.10757353 0.089417659 0.53502369 65931
0.10848109 0.089417465 0.5350225 65931
0.10938863 0.089417264 0.53502131 65931
0.11029617 0.089417063 0.53502011 65931
0.11120372 0.089416869 0.53501892 65931
0.11211125 0.089416668 0.53501773 65931
0.11301878 0.089416467 0.53501654 65931
0.11392631 0.089416265 0.53501534 65931
0.11483383 0.089416072 0.53501415 65931
0.11574136 0.089415878 0.53501302 65931
0.11664887 0.089415669 0.53501177 65931
0.11755639 0.089415483 0.53501064 65931
0.11846389 0.089415275 0.53500938 65931
0.11937139 0.089415073 0.53500819 65931
0.12027889 0.089414872 0.535007 65931
0.1211864 0.089414686 0.53500587 65931
0.12209389 0.089414485 0.53500468 65931
0.12300137 0.089414284 0.53500348 65931
0.12390886 0.089414082 0.53500229 65931
0.12481634 0.089413889 0.5350011 65931
0.12572381 0.089413688 0.53499991 65931
0.1266313 0.089413501 0.53499877 65931
0.12753882 0.08941333 0.53499776 65931
0.12844628 0.089413136 0.53499663 65931
0.12935379 0.089412972 0.53499562 65931
0.10472818 0.096041046 0.56887877 26214
0.10472357 0.095159769 0.56365871 6758
0.10471934 0.094294794 0.55853522 102
0.10471519 0.093445398 0.55350399 102
0.10471112 0.092611164 0.54856259 102
0.10470709 0.091791682 0.54370856 102
0.10470314 0.090986572 0.53893965 102
0.10470344 0.090199068 0.53427505 65913
0.10560973 0.090198867 0.53427386 65931
0.10651601 0.090198666 0.53427267 65931
0.10742229 0.090198465 0.53427148 65931
0.10832857 0.090198264 0.53427029 65931
0.10923484 0.090198062 0.53426909 65931
0.11014111 0.090197861 0.5342679 65931
0.11104737 0.09019766 0.53426671 65931
0.11195364 0.090197466 0.53426558 65931
0.1128599 0.090197265 0.53426439 65931
0.11376615 0.090197064 0.53426319 65931
0.11467239 0.090196863 0.534262 65931
0.11557864 0.090196662 0.53426081 65931
0.11648488 0.09019646 0.53425962 65931
0.11739112 0.090196267 0.53425848 65931
0.11829735 0.090196066 0.53425729 65931
0.11920358 0.090195864 0.5342561 65931
0.1201098 0.090195663 0.53425491 65931
0.12101603 0.090195462 0.53425372 65931
0.12192224 0.090195261 0.53425252 65931
0.12282845 0.09019506 0.53425133 65931
0.12373466 0.090194859 0.53425014 65931
0.12464086 0.090194657 0.53424895 65931
0.12554708 0.090194471 0.53424782 65931
0.12645327 0.09019427 0.53424662 65931
0.12735946 0.090194069 0.53424543 65931
0.12826569 0.090193897 0.53424442 65931
0.12917189 0.090193704 0.53424329 65931
0.13007811 0.090193532 0.53424227 4587846
0.10473112 0.097911417 0.5741868 4600884
0.10472858 0.097006656 0.56888098 26214
0.1047243 0.096116818 0.56366265 13158
0.10472006 0.095243134 0.55853903 102
0.1047159 0.094385184 0.55350775 102
0.10471182 0.093542561 0.54856628 102
0.10470778 0.092714824 0.54371214 102
0.10470382 0.091901608 0.53894317 102
0.10469992 0.091102533 0.53425711 111
0.10546145 0.090977475 0.53352374 65931
0.10636646 0.090977274 0.53352255 65931
0.10727148 0.09097708 0.53352141 65931
0.10817648 0.090976872 0.53352022 65931
0.10908148 0.09097667 0.53351903 65931
0.10998648 0.090976469 0.53351784 65931
0.11089147 0.090976268 0.53351665 65931
0.11179645 0.090976059 0.53351545 65931
0.11270145 0.090975866 0.53351432 65931
0.11360643 0.090975665 0.53351313 65931
0.1145114 0.090975463 0.53351194 65931
0.11541637 0.090975262 0.53351074 65931
0.11632134 0.090975054 0.53350955 65931
0.1172263 0.090974852 0.53350836 65931
0.11813127 0.090974659 0.53350723 65931
0.11903623 0.090974458 0.53350604 65931
0.11994118 0.090974256 0.53350484 65931
0.12084612 0.090974048 0.53350365 65931
0.12175108 0.090973854 0.53350252 65931
0.12265602 0.090973653 0.53350133 65931
0.12356096 0.090973452 0.53350013 65931
0.12446588 0.090973243 0.53349894 65931
0.12537083 0.090973057 0.53349781 65931
0.12627575 0.090972848 0.53349662 65931
0.12718067 0.090972647 0.53349543 65931
0.12808558 0.090972446 0.53349423 65931
0.12899052 0.09097226 0.53349316 65931
0.12989545 0.090972081 0.53349209 2359657
0.10473153 0.09888605 0.57418907 2313549
0.10472899 0.097972281 0.56888318 26214
0.10472605 0.097074836 0.56367213 19814
0.10472077 0.096191481 0.55854285 102
0.10471661 0.095324986 0.5535115 102
0.10471252 0.094473965 0.54856998 102
0.10470849 0.093637981 0.54371578 102
0.10470451 0.092816666 0.53894675 102
0.10470061 0.092009626 0.53426063 111
0.10531361 0.091753915 0.53277582 65931
0.10621735 0.091753714 0.53277463 65931
0.10712109 0.091753505 0.53277344 65931
0.10802482 0.091753304 0.53277224 65931
0.10892857 0.09175311 0.53277111 65931
0.10983229 0.091752902 0.53276992 65931
0.11073601 0.091752693 0.53276873 65931
0.11163973 0.091752492 0.53276753 65931
0.11254346 0.091752298 0.5327664 65931
0.11344717 0.09175209 0.53276521 65931
0.11435087 0.091751888 0.53276402 65931
0.11525457 0.09175168 0.53276283 65931
0.11615827 0.091751471 0.53276163 65931
0.11706197 0.09175127 0.53276044 65931
0.11796565 0.091751061 0.53275925 65931
0.11886935 0.091750868 0.53275812 65931
0.11977303 0.091750666 0.53275692 65931
0.1206767 0.09175045 0.53275567 65931
0.12158038 0.091750257 0.53275454 65931
0.12248407 0.091750056 0.53275341 65931
0.12338773 0.091749854 0.53275222 65931
0.12429141 0.091749661 0.53275108 65931
0.12519507 0.091749452 0.53274989 65931
0.12609872 0.091749251 0.5327487 65931
0.12700239 0.09174905 0.53274757 65931
0.12790602 0.091748849 0.53274637 65931
0.12880968 0.09174864 0.53274518 65931
0.12971333 0.091748446 0.53274405 65931
0.10473195 0.099860691 0.57419133 26214
0.10472939 0.098937906 0.56888539 26214
0.10472646 0.09803161 0.56367427 19814
0.1047215 0.09713985 0.55854672 102
0.10471732 0.096264802 0.55351526 102
0.10471323 0.095405385 0.54857367 102
0.10470919 0.09456116 0.54371941 102
0.10470521 0.093731739 0.53895032 102
0.10470129 0.092916727 0.53426409 102
0.10524359 0.092596292 0.53242159 111
0.10614699 0.092596315 0.53242171 111
0.1070504 0.09259633 0.53242183 111
0.10795381 0.092596367 0.53242201 111
0.10885721 0.092596382 0.53242213 111
0.10976062 0.092596404 0.53242224 111
0.11066402 0.092596427 0.53242236 111
0.11156744 0.092596456 0.53242254 111
0.11247084 0.092596479 0.53242266 111
0.11337425 0.092596501 0.53242278 111
0.11427767 0.092596531 0.53242296 111
0.11518107 0.092596553 0.53242308 111
0.11608448 0.092596568 0.5324232 111
0.11698789 0.092596591 0.53242332 111
0.11789131 0.09259662 0.5324235 111
0.11879472 0.092596643 0.53242362 111
0.11969813 0.092596665 0.53242373 111
0.12060153 0.092596687 0.53242385 111
0.12150496 0.092596717 0.53242403 111
0.12240837 0.09259674 0.53242415 111
0.12331178 0.092596754 0.53242427 111
0.12421519 0.092596777 0.53242439 111
0.12511861 0.092596807 0.53242457 111
0.12602203 0.092596829 0.53242469 111
0.12692545 0.092596859 0.53242487 111
0.12782887 0.092596881 0.53242499 111
0.12873228 0.092596903 0.53242511 111
0.12963571 0.092596933 0.53242528 111
0.10473235 0.10083533 0.57419354 26214
0.10472981 0.099903554 0.56888765 26214
0.10472687 0.098988406 0.56367648 26214
0.10472222 0.098088227 0.55855054 102
0.10471804 0.097204641 0.55351907 102
0.10471393 0.096336819 0.54857737 102
0.10470989 0.095484339 0.54372305 102
0.10470591 0.094646819 0.5389539 102
0.10470198 0.09382385 0.5342676 102
0.10547014 0.093700945 0.53356773 102
0.10637551 0.093700975 0.53356791 102
0.10728087 0.09370102 0.53356814 102
0.10818622 0.093701042 0.53356826 102
0.10909159 0.093701072 0.53356844 102
0.10999694 0.093701094 0.53356856 102
0.11090229 0.093701124 0.53356874 102
0.11180764 0.093701147 0.53356886 102
0.11271299 0.093701161 0.53356898 102
0.11361836 0.093701199 0.53356916 102
0.11452371 0.093701221 0.53356928 102
0.11542906 0.093701236 0.5335694 102
0.11633442 0.093701258 0.53356951 102
0.11723977 0.093701281 0.53356963 102
0.11814512 0.093701303 0.53356975 102
0.11905049 0.093701333 0.53356993 102
0.11995584 0.093701355 0.53357005 102
0.1208612 0.093701378 0.53357017 102
0.12176656 0.093701407 0.53357035 102
0.12267192 0.09370143 0.53357047 102
0.12357728 0.093701459 0.53357065 102
0.12448264 0.093701482 0.53357077 102
0.125388 0.093701497 0.53357089 102
0.12629336 0.093701519 0.533571 102
0.12719873 0.093701549 0.53357118 102
0.12810409 0.093701571 0.5335713 102
0.12900944 0.093701594 0.53357142 102
0.12991482 0.093701623 0.5335716 4587828
0.10473537 0.10276851 0.57960176 4600884
0.10473277 0.10180999 0.57419586 26214
0.10473022 0.10086919 0.56888986 26214
0.10472726 0.099945195 0.56367862 26214
0.10472293 0.099036619 0.55855435 102
0.10471875 0.098144487 0.55352283 102
0.10471464 0.097268268 0.54858106 102
0.10471059 0.09640754 0.54372668 102
0.1047066 0.095561922 0.53895748 102
0.10479039 0.094810352 0.53471875 102
0.10569771 0.094810389 0.53471893 102
0.10660502 0.094810419 0.53471911 102
0.10751233 0.094810449 0.53471929 102
0.10841966 0.094810501 0.53471959 102
0.10932697 0.094810523 0.53471971 102
0.11023427 0.094810545 0.53471982 102
0.11114158 0.094810575 0.53472 102
0.11204888 0.09481059 0.53472006 102
0.1129562 0.09481062 0.53472024 102
0.1138635 0.094810642 0.53472036 102
0.11477081 0.094810672 0.53472054 102
0.11567812 0.094810694 0.53472066 102
0.11658543 0.094810717 0.53472078 102
0.11749274 0.094810747 0.53472096 102
0.11840005 0.094810769 0.53472108 102
0.11930735 0.094810791 0.5347212 102
0.12021466 0.094810806 0.53472131 102
0.12112199 0.094810843 0.53472149 102
0.12202929 0.094810866 0.53472161 102
0.1229366 0.094810881 0.53472173 102
0.12384392 0.094810918 0.53472191 102
0.12475123 0.09481094 0.53472203 102
0.12565854 0.094810955 0.53472215 102
0.12656586 0.094810978 0.53472227 102
0.12747318 0.094811007 0.53472245 102
0.12838049 0.09481103 0.53472257 102
0.12928779 0.094811052 0.53472269 102
0.10473579 0.10375236 0.57960409 2313549
0.10473317 0.10278465 0.57419807 26214
0.10473061 0.10183483 0.568892 26214
0.10472767 0.10090201 0.56368083 26214
0.10472365 0.099985033 0.55855823 6758
0.10471947 0.09908434 0.55352658 102
0.10471535 0.098199725 0.54858476 102
0.10471128 0.097330749 0.54373032 102
0.10470729 0.096477024 0.53896105 102
0.10501697 0.095924586 0.5358749 102
0.10592624 0.095924623 0.53587508 102
0.10683553 0.095924661 0.53587532 102
0.10774479 0.095924683 0.53587544 102
0.10865407 0.095924728 0.53587568 102
0.10956335 0.095924757 0.53587586 102
0.11047264 0.095924802 0.5358761 102
0.1113819 0.095924824 0.53587621 102
0.11229117 0.095924847 0.53587633 102
0.11320045 0.095924877 0.53587651 102
0.11410971 0.095924899 0.53587663 102
0.11501899 0.095924929 0.53587681 102
0.11592826 0.095924951 0.53587693 102
0.11683752 0.095924973 0.53587705 102
0.11774679 0.095924996 0.53587717 102
0.11865606 0.095925018 0.53587729 102
0.11956535 0.095925048 0.53587747 102
0.12047461 0.09592507 0.53587759 102
0.12138388 0.095925093 0.5358777 102
0.12229315 0.095925115 0.53587782 102
0.12320244 0.095925145 0.535878 102
0.1241117 0.095925167 0.53587812 102
0.12502098 0.09592519 0.53587824 102
0.12593026 0.095925219 0.53587842 102
0.12683955 0.095925249 0.5358786 102
0.12774882 0.095925272 0.53587872 102
0.1286581 0.095925294 0.53587884 102
0.12956737 0.095925316 0.53587896 102
0.1047362 0.1047362 0.57960635 26214
0.10473359 0.10375933 0.57420039 26214
0.10473103 0.1028005 0.56889427 26214
0.10472807 0.10185881 0.56368297 26214
0.10472437 0.10093345 0.55856204 6758
0.10472018 0.1000242 0.55353034 102
0.10471605 0.099131197 0.54858845 102
0.10471198 0.098253973 0.54373395 102
0.10470798 0.097392134 0.53896457 102
0.10524453 0.097043663 0.53703612 102
0.10615577 0.097043686 0.53703624 102
0.10706702 0.097043723 0.53703648 102
0.10797827 0.09704376 0.53703666 102
0.10888951 0.09704379 0.53703684 102
0.10980076 0.09704382 0.53703701 102
0.11071201 0.097043864 0.53703725 102
0.11162327 0.097043909 0.53703749 102
0.11253451 0.097043931 0.53703761 102
0.11344576 0.097043961 0.53703779 102
0.11435699 0.097043984 0.53703791 102
0.11526823 0.097044006 0.53703803 102
0.11617948 0.097044036 0.53703821 102
0.11709071 0.097044051 0.53703827 102
0.11800196 0.09704408 0.53703845 102
0.1189132 0.097044103 0.53703856 102
0.11982444 0.097044125 0.53703868 102
0.12073569 0.097044155 0.53703886 102
0.12164694 0.097044192 0.53703904 102
0.12255818 0.097044207 0.53703916 102
0.12346942 0.09704423 0.53703928 102
0.12438065 0.097044244 0.53703934 102
0.12529191 0.097044289 0.53703958 102
0.12620316 0.097044311 0.5370397 102
0.1271144 0.097044326 0.53703982 102
0.12802567 0.097044364 0.53704 102
0.1289369 0.097044386 0.53704011 102
0.12984815 0.097044408 0.53704023 2293837
0.10473662 0.10572007 0.57960868 26214
0.104734 0.104734 0.5742026 26214
0.10473143 0.10376617 0.56889647 26214
0.10472847 0.10281562 0.56368512 26214
0.10472548 0.10188225 0.55856794 13158
0.10472088 0.10096408 0.55353409 102
0.10471676 0.10006268 0.54859215 102
0.10471268 0.099177212 0.54373759 102
0.10470867 0.098307267 0.53896815 102
0.10547309 0.098167591 0.53820235 102
0.1063863 0.098167621 0.53820252 102
0.10729953 0.09816765 0.5382027 102
0.10821275 0.098167688 0.53820288 102
0.10912597 0.098167717 0.53820306 102
0.11003921 0.098167762 0.5382033 102
0.11095244 0.098167792 0.53820348 102
0.11186566 0.098167829 0.53820366 102
0.11277889 0.098167859 0.53820384 102
0.11369213 0.098167904 0.53820407 102
0.11460534 0.098167926 0.53820419 102
0.11551857 0.098167956 0.53820437 102
0.11643179 0.098167978 0.53820449 102
0.11734501 0.098168001 0.53820461 102
0.11825824 0.09816803 0.53820479 102
0.11917146 0.098168053 0.53820491 102
0.12008467 0.098168075 0.53820503 102
0.12099791 0.098168112 0.53820521 102
0.12191112 0.098168135 0.53820533 102
0.12282434 0.09816815 0.53820544 102
0.12373757 0.098168187 0.53820562 102
0.12465079 0.098168209 0.53820574 102
0.12556401 0.098168232 0.53820586 102
0.12647724 0.098168254 0.53820598 102
0.12739047 0.098168284 0.53820616 102
0.12830369 0.098168306 0.53820628 102
0.12921691 0.098168328 0.5382064 102
0.10473703 0.10670392 0.57961094 26214
0.10473441 0.10570869 0.57420486 26214
0.10473184 0.10473184 0.56889868 26214
0.10472887 0.10377244 0.56368726 26214
0.10472587 0.10283038 0.55857003 19814
0.1047216 0.10190398 0.55353785 102
0.10471746 0.10099418 0.54859585 102
0.10471338 0.10010046 0.54374123 102
0.10478742 0.099296369 0.53937346 102
0.10570262 0.099296406 0.53937364 102
0.10661783 0.099296436 0.53937382 102
0.10753305 0.099296473 0.53937399 102
0.10844827 0.099296518 0.53937423 102
0.10936348 0.099296547 0.53937441 102
0.11027869 0.099296577 0.53937459 102
0.1111939 0.099296615 0.53937477 102
0.11210913 0.099296659 0.53937501 102
0.11302433 0.099296682 0.53937513 102
0.11393956 0.099296726 0.53937536 102
0.11485478 0.099296764 0.5393756 102
0.11577 0.099296801 0.53937578 102
0.1166852 0.099296823 0.5393759 102
0.11760041 0.099296845 0.53937602 102
0.11851561 0.099296868 0.53937614 102
0.11943082 0.09929689 0.53937626 102
0.12034604 0.09929692 0.53937644 102
0.12126124 0.099296942 0.53937656 102
0.12217645 0.099296965 0.53937668 102
0.12309167 0.099296995 0.53937685 102
0.12400687 0.099297017 0.53937697 102
0.12492208 0.099297039 0.53937709 102
0.12583731 0.099297076 0.53937727 102
0.12675253 0.099297106 0.53937745 102
0.12766774 0.099297129 0.53937757 102
0.12858294 0.099297151 0.53937769 102
0.12949815 0.099297173 0.53937781 102
0.10474012 0.10871131 0.58512217 4600884
0.10473745 0.1076878 0.57961327 26214
0.10473482 0.10668338 0.57420713 26214
0.10473225 0.10569752 0.56890088 26214
0.10472928 0.10472928 0.56368947 26214
0.10472627 0.10377853 0.55857217 19814
0.10472231 0.10284388 0.5535416 102
0.10471816 0.10192569 0.54859954 102
0.10471408 0.10102372 0.54374486 102
0.10501596 0.10043012 0.54054987 102
0.10593317 0.10043015 0.54055005 102
0.10685038 0.10043018 0.54055023 102
0.10776758 0.10043021 0.54055041 102
0.10868479 0.10043025 0.54055059 102
0.109602 0.10043028 0.54055077 102
0.11051922 0.10043032 0.54055101 102
0.11143643 0.10043036 0.54055119 102
0.11235364 0.10043039 0.54055136 102
0.11327084 0.10043042 0.54055154 102
0.11418807 0.10043047 0.54055178 102
0.11510528 0.1004305 0.54055196 102
0.11602249 0.10043053 0.54055214 102
0.11693972 0.10043058 0.54055238 102
0.1178569 0.10043059 0.54055244 102
0.1187741 0.10043062 0.54055256 102
0.1196913 0.10043064 0.54055268 102
0.12060852 0.10043067 0.54055285 102
0.12152575 0.10043071 0.54055309 102
0.12244294 0.10043073 0.54055315 102
0.12336016 0.10043076 0.54055333 102
0.12427735 0.10043078 0.54055345 102
0.12519458 0.10043081 0.54055363 102
0.12611176 0.10043082 0.54055369 102
0.127029 0.10043087 0.54055393 102
0.1279462 0.10043089 0.54055405 102
0.12886341 0.10043091 0.54055417 102
0.12978064 0.10043094 0.54055434 102
0.10474055 0.10970455 0.58512455 26163
0.10473787 0.10867169 0.57961559 26214
0.10473524 0.10765808 0.57420939 26214
0.10473266 0.10666322 0.56890315 26214
0.10472967 0.10568611 0.56369162 26214
0.10472667 0.10472667 0.55857432 26214
0.10472301 0.1037838 0.55354536 102
0.10471886 0.10285719 0.54860318 102
0.10471477 0.10194698 0.54374844 102
0.10524551 0.10156881 0.54173142 102
0.10616472 0.10156885 0.5417316 102
0.10708393 0.10156888 0.54173177 102
0.10800315 0.10156892 0.54173201 102
0.10892235 0.10156894 0.54173213 102
0.10984158 0.10156899 0.54173237 102
0.11076079 0.10156903 0.54173255 102
0.11168 0.10156906 0.54173273 102
0.11259922 0.10156909 0.54173291 102
0.11351845 0.10156914 0.54173315 102
0.11443766 0.10156917 0.54173332 102
0.11535688 0.10156921 0.5417335 102
0.11627609 0.10156924 0.54173368 102
0.11719531 0.10156927 0.54173386 102
0.11811454 0.10156932 0.5417341 102
0.11903375 0.10156934 0.54173422 102
0.11995295 0.10156936 0.54173434 102
0.12087217 0.10156939 0.54173452 102
0.12179138 0.10156941 0.54173464 102
0.1227106 0.10156945 0.54173481 102
0.12362981 0.10156947 0.54173493 102
0.12454902 0.1015695 0.54173505 102
0.12546824 0.10156953 0.54173523 102
0.12638745 0.10156955 0.54173535 102
0.12730666 0.10156957 0.54173547 102
0.12822588 0.10156961 0.54173565 102
0.12914509 0.10156963 0.54173577 102
0.13006431 0.10156965 0.54173589 4587828
0.10474412 0.11070114 0.58514452 26138
0.10473829 0.10965558 0.57961792 26214
0.10473565 0.1086328 0.57421166 26214
0.10473307 0.10762891 0.56890535 26214
0.10473008 0.10664296 0.56369382 26214
0.10472707 0.10567483 0.55857646 26214
0.10472374 0.10472374 0.55354917 6758
0.10471958 0.10378873 0.54860693 102
0.10471546 0.10287026 0.54375201 102
0.10547605 0.10271249 0.54291809 102
0.10639729 0.10271253 0.54291832 102
0.10731851 0.10271256 0.5429185 102
0.10823973 0.1027126 0.54291868 102
0.10916096 0.10271263 0.54291886 102
0.1100822 0.10271268 0.5429191 102
0.11100343 0.10271271 0.54291928 102
0.11192466 0.10271274 0.54291946 102
0.11284588 0.10271278 0.54291964 102
0.11376712 0.10271282 0.54291987 102
0.11468835 0.10271286 0.54292005 102
0.11560958 0.10271289 0.54292023 102
0.11653081 0.10271293 0.54292041 102
0.11745206 0.10271297 0.54292065 102
0.1183733 0.10271302 0.54292089 102
0.11929453 0.10271305 0.54292107 102
0.12021577 0.10271309 0.54292125 102
0.12113699 0.10271311 0.54292136 102
0.12205821 0.10271313 0.54292148 102
0.12297942 0.10271315 0.5429216 102
0.12390066 0.10271319 0.54292178 102
0.12482189 0.10271322 0.54292196 102
0.12574312 0.10271324 0.54292208 102
0.12666434 0.10271326 0.5429222 102
0.12758557 0.1027133 0.54292238 102
0.12850681 0.10271333 0.54292256 102
0.12942804 0.10271335 0.54292268 102
0.10474412 0.11169397 0.58514452 26138
0.10473869 0.11063946 0.57962012 26214
0.10473605 0.1096075 0.57421386 26214
0.10473347 0.10859462 0.56890756 26214
0.10473049 0.10759982 0.56369597 26214
0.10472747 0.10662299 0.55857855 26214
0.10472444 0.10566367 0.55355287 6758
0.10472028 0.10472028 0.54861063 102
0.10478438 0.10386117 0.54410988 102
0.10570762 0.10386121 0.54411006 102
0.10663087 0.10386124 0.54411024 102
0.10755412 0.10386127 0.54411042 102
0.10847738 0.10386132 0.54411066 102
0.10940062 0.10386135 0.54411083 102
0.11032387 0.10386138 0.54411101 102
0.11124712 0.10386142 0.54411119 102
0.11217038 0.10386147 0.54411143 102
0.11309363 0.1038615 0.54411161 102
0.11401688 0.10386153 0.54411179 102
0.11494014 0.10386157 0.54411197 102
0.11586341 0.10386162 0.54411227 102
0.11678667 0.10386166 0.54411244 102
0.1177099 0.10386168 0.54411256 102
0.11863317 0.10386173 0.5441128 102
0.11955644 0.10386177 0.54411304 102
0.1204797 0.10386181 0.54411322 102
0.12140295 0.10386184 0.5441134 102
0.12232621 0.10386188 0.54411358 102
0.12324945 0.1038619 0.5441137 102
0.12417271 0.10386193 0.54411387 102
0.12509595 0.10386195 0.54411399 102
0.12601921 0.10386199 0.54411417 102
0.12694246 0.10386201 0.54411429 102
0.12786572 0.10386205 0.54411447 102
0.12878896 0.10386207 0.54411459 102
0.12971219 0.10386208 0.54411465 102
0.1047435 0.11376448 0.5907405 4600833
0.10474412 0.11268681 0.58514452 26112
0.10473911 0.11162337 0.57962245 26214
0.10473647 0.11058223 0.57421613 26214
0.10473388 0.10956033 0.56890976 26214
0.10473088 0.10855667 0.56369811 26214
0.10472787 0.10757116 0.5585807 26214
0.1047249 0.10660338 0.55355531 19814
0.10472099 0.10565184 0.54861432 102
0.10501493 0.10501493 0.54530704 102
0.1059402 0.10501496 0.54530722 102
0.10686548 0.10501499 0.5453074 102
0.10779077 0.10501504 0.54530764 102
0.10871605 0.10501508 0.54530782 102
0.10964134 0.10501512 0.54530805 102
0.11056662 0.10501516 0.54530823 102
0.1114919 0.10501519 0.54530841 102
0.11241718 0.10501523 0.54530859 102
0.11334247 0.10501527 0.54530883 102
0.11426776 0.10501531 0.54530901 102
0.11519304 0.10501534 0.54530919 102
0.11611832 0.10501537 0.54530936 102
0.11704362 0.10501542 0.5453096 102
0.11796892 0.10501546 0.54530984 102
0.11889419 0.10501549 0.54530996 102
0.11981948 0.10501554 0.5453102 102
0.12074479 0.10501558 0.54531044 102
0.12167007 0.10501561 0.54531062 102
0.12259536 0.10501565 0.5453108 102
0.12352065 0.10501569 0.54531097 102
0.12444594 0.10501572 0.54531115 102
0.12537122 0.10501574 0.54531127 102
0.12629649 0.10501576 0.54531139 102
0.12722176 0.10501578 0.54531151 102
0.12814707 0.10501582 0.54531169 102
0.12907235 0.10501586 0.54531187 102
0.12999763 0.10501588 0.54531199 4587828
0.10474352 0.11476682 0.59074056 2313472
0.10474414 0.11367965 0.58514458 26112
0.10473953 0.11260729 0.57962477 26214
0.10473688 0.11155695 0.57421839 26214
0.10473429 0.11052605 0.56891197 26214
0.10473129 0.10951354 0.56370032 26214
0.10472827 0.10851934 0.55858284 26214
0.10472529 0.10754301 0.5535574 19814
0.1047217 0.10658342 0.54861802 102
0.1052465 0.10617378 0.5465095 102
0.10617381 0.10617381 0.54650968 102
0.10710113 0.10617385 0.54650986 102
0.10802846 0.1061739 0.5465101 102
0.10895578 0.10617393 0.54651028 102
0.10988311 0.10617398 0.54651052 102
0.11081043 0.10617401 0.5465107 102
0.11173775 0.10617404 0.54651088 102
0.11266507 0.10617408 0.54651105 102
0.11359241 0.10617413 0.54651129 102
0.11451973 0.10617416 0.54651147 102
0.11544705 0.10617419 0.54651165 102
0.11637437 0.10617423 0.54651183 102
0.11730171 0.10617428 0.54651207 102
0.11822905 0.10617432 0.54651231 102
0.11915636 0.10617435 0.54651242 102
0.1200837 0.10617439 0.54651266 102
0.12101103 0.10617442 0.54651284 102
0.12193837 0.10617448 0.54651308 102
0.12286571 0.10617452 0.54651332 102
0.12379304 0.10617456 0.5465135 102
0.12472037 0.10617459 0.54651368 102
0.12564769 0.10617463 0.54651386 102
0.12657502 0.10617465 0.54651397 102
0.12750234 0.10617467 0.54651409 102
0.12842967 0.10617471 0.54651427 102
0.129357 0.10617474 0.54651445 102
0.10474352 0.11576915 0.59074056 26112
0.10474414 0.11467249 0.58514458 26112
0.10473995 0.11359121 0.5796271 26189
0.1047373 0.1125317 0.57422066 26214
0.10473469 0.11149177 0.56891418 26214
0.10473169 0.11047041 0.56370246 26214
0.10472866 0.10946751 0.55858493 26214
0.10472569 0.10848267 0.55355948 19814
0.1047224 0.107515 0.54862171 102
0.1054791 0.10733777 0.54771733 102
0.10640847 0.1073378 0.54771751 102
0.10733783 0.10733783 0.54771769 102
0.1082672 0.10733787 0.54771787 102
0.10919658 0.10733791 0.54771811 102
0.11012595 0.10733795 0.54771829 102
0.11105531 0.10733798 0.54771847 102
0.11198469 0.10733802 0.54771864 102
0.11291406 0.10733806 0.54771882 102
0.11384344 0.1073381 0.54771906 102
0.11477281 0.10733814 0.54771924 102
0.1157022 0.10733818 0.54771948 102
0.11663157 0.10733822 0.54771966 102
0.11756095 0.10733825 0.54771984 102
0.11849032 0.10733829 0.54772002 102
0.11941971 0.10733833 0.54772025 102
0.12034908 0.10733837 0.54772043 102
0.12127846 0.10733841 0.54772061 102
0.12220785 0.10733845 0.54772085 102
0.12313723 0.10733849 0.54772103 102
0.12406663 0.10733855 0.54772133 102
0.12499601 0.10733858 0.54772151 102
0.12592539 0.10733861 0.54772168 102
0.12685476 0.10733865 0.54772186 102
0.12778415 0.10733868 0.54772204 102
0.12871352 0.10733871 0.54772216 102
0.12964289 0.10733873 0.54772228 102
0.10474352 0.11677148 0.59074056 26112
0.10474414 0.11566532 0.58514458 26112
0.10474036 0.11457513 0.57962936 26189
0.1047377 0.11350644 0.57422286 26214
0.10473511 0.11245751 0.56891644 26214
0.10473209 0.11142729 0.56370461 26214
0.10472906 0.11041571 0.55858707 26214
0.10472608 0.10942231 0.55356151 26214
0.10478129 0.10850684 0.54893023 102
0.10571271 0.10850688 0.54893041 102
0.10664414 0.10850692 0.54893059 102
0.10757557 0.10850696 0.54893082 102
0.108507 0.108507 0.548931 102
0.10943843 0.10850704 0.54893124 102
0.11036986 0.10850708 0.54893142 102
0.1113013 0.10850712 0.5489316 102
0.11223272 0.10850716 0.54893178 102
0.11316416 0.1085072 0.54893202 102
0.11409559 0.10850724 0.54893219 102
0.11502703 0.10850728 0.54893243 102
0.11595847 0.10850732 0.54893261 102
0.11688989 0.10850735 0.54893279 102
0.11782133 0.10850739 0.54893297 102
0.11875277 0.10850743 0.54893321 102
0.1196842 0.10850747 0.54893339 102
0.12061564 0.10850751 0.54893357 102
0.12154709 0.10850755 0.5489338 102
0.12247852 0.10850759 0.54893398 102
0.12340997 0.10850763 0.54893422 102
0.12434141 0.10850767 0.5489344 102
0.12527284 0.10850771 0.54893458 102
0.1262043 0.10850775 0.54893482 102
0.12713574 0.10850779 0.548935 102
0.1280672 0.10850783 0.54893523 102
0.12899861 0.10850786 0.54893535 102
0.12993005 0.10850789 0.54893553 4587828
0.10474353 0.11777382 0.59074062 26112
0.10474414 0.11665816 0.58514458 26112
0.10474077 0.11555906 0.57963163 26163
0.10473812 0.1144812 0.57422519 26214
0.1047355 0.11342324 0.56891859 26214
0.1047325 0.11238419 0.56370682 26214
0.10472947 0.11136392 0.55858922 26214
0.10472648 0.11036199 0.55356365 26214
0.10501388 0.10968117 0.55014873 13158
0.10594737 0.1096812 0.5501489 6758
0.10688087 0.10968123 0.55014908 6758
0.10781436 0.10968128 0.55014932 6758
0.10874786 0.10968132 0.5501495 6758
0.10968137 0.10968137 0.55014974 6758
0.11061486 0.1096814 0.55014992 6758
0.11154836 0.10968143 0.5501501 6758
0.11248185 0.10968147 0.55015028 6758
0.11341536 0.10968152 0.55015051 6758
0.11434886 0.10968155 0.55015069 6758
0.11528236 0.10968161 0.55015093 6758
0.11621586 0.10968164 0.55015111 6758
0.11714936 0.10968167 0.55015129 6758
0.11808286 0.10968171 0.55015147 6758
0.11901637 0.10968176 0.55015171 6758
0.11994989 0.10968181 0.55015194 6758
0.12088339 0.10968184 0.55015212 6758
0.12181689 0.10968187 0.5501523 6758
0.12275039 0.10968191 0.55015248 6758
0.12368391 0.10968196 0.55015272 6758
0.12461741 0.10968199 0.5501529 6758
0.12555094 0.10968205 0.55015314 6758
0.12648444 0.10968208 0.55015332 6758
0.12741795 0.10968213 0.55015355 6758
0.12835146 0.10968216 0.55015373 6758
0.12928496 0.10968219 0.55015385 6758
0.10474277 0.11992288 0.59644395 2313472
0.10474353 0.11877615 0.59074062 26112
0.10474414 0.11765101 0.58514464 26112
0.10474416 0.11654632 0.5796504 26138
0.10473852 0.11545596 0.57422739 26214
0.10473592 0.114389 0.56892085 26214
0.1047329 0.11334109 0.56370896 26214
0.10472986 0.11231211 0.55859131 26214
0.10472687 0.11130165 0.55356574 26214
0.10524882 0.1108621 0.55137956 26214
0.10618437 0.1108621 0.55137956 26214
0.10711992 0.1108621 0.55137956 26214
0.10805548 0.11086212 0.55137968 26214
0.10899105 0.11086214 0.5513798 26214
0.10992662 0.11086217 0.55137992 26214
0.11086219 0.11086219 0.55138004 26214
0.11179776 0.11086222 0.55138016 26214
0.11273332 0.11086223 0.55138022 26214
0.11366889 0.11086225 0.55138034 26214
0.11460446 0.11086228 0.55138046 26214
0.11554004 0.1108623 0.55138057 26214
0.1164756 0.11086232 0.55138069 26214
0.11741118 0.11086234 0.55138081 26214
0.11834674 0.11086236 0.55138087 26214
0.11928231 0.11086238 0.55138099 26214
0.12021788 0.1108624 0.55138111 26214
0.12115346 0.11086243 0.55138123 26214
0.12208904 0.11086246 0.55138135 26214
0.1230246 0.11086246 0.55138141 26214
0.12396017 0.11086249 0.55138153 26214
0.12489574 0.11086252 0.55138165 26214
0.12583132 0.11086254 0.55138177 26214
0.12676689 0.11086256 0.55138189 26214
0.12770247 0.11086259 0.55138201 26214
0.12863804 0.1108626 0.55138206 26214
0.12957361 0.11086262 0.55138218 26214
0.10474354 0.1197785 0.59074068 26112
0.10474414 0.11864384 0.58514464 26112
0.10474416 0.11752983 0.5796504 26138
0.10473894 0.11643074 0.57422972 26214
0.10473633 0.11535475 0.56892306 26214
0.10473331 0.11429799 0.56371117 26214
0.10473026 0.11326033 0.55859345 26214
0.10472726 0.11224132 0.55356777 26214
0.1054844 0.11204787 0.55261368 26214
0.10642202 0.11204786 0.55261362 26214
0.10735966 0.11204786 0.55261362 26214
0.10829729 0.11204784 0.55261356 26214
0.10923494 0.11204786 0.55261362 26214
0.1101726 0.11204788 0.55261374 26214
0.11111026 0.1120479 0.55261385 26214
0.11204793 0.11204793 0.55261397 26214
0.1129856 0.11204796 0.55261409 26214
0.11392324 0.11204796 0.55261415 26214
0.11486091 0.11204799 0.55261427 26214
0.11579858 0.11204801 0.55261439 26214
0.11673624 0.11204804 0.55261451 26214
0.1176739 0.11204806 0.55261463 26214
0.11861157 0.11204809 0.55261475 26214
0.11954923 0.1120481 0.55261481 26214
0.12048691 0.11204813 0.55261499 26214
0.12142458 0.11204816 0.55261511 26214
0.12236223 0.11204817 0.55261517 26214
0.1232999 0.11204819 0.55261528 26214
0.12423757 0.11204822 0.5526154 26214
0.12517524 0.11204825 0.55261552 26214
0.12611291 0.11204827 0.55261564 26214
0.12705058 0.11204829 0.55261576 26214
0.12798823 0.11204831 0.55261582 26214
0.1289259 0.11204833 0.55261594 26214
0.12986358 0.11204835 0.55261606 2313549
0.10474354 0.12078083 0.59074068 26112
0.10474414 0.11963668 0.58514464 26112
0.10474416 0.11851335 0.5796504 26112
0.10473935 0.1174055 0.57423192 26214
0.10473673 0.11632052 0.56892526 26214
0.10473371 0.1152549 0.56371331 26214
0.10473067 0.11420855 0.5585956 26214
0.10478128 0.11323897 0.55385333 26214
0.10572101 0.11323895 0.55385327 26214
0.10666075 0.11323894 0.55385321 26214
0.10760049 0.11323894 0.55385321 26214
0.10854021 0.11323893 0.55385315 26214
0.10947995 0.11323892 0.55385309 26214
0.1104197 0.11323893 0.55385315 26214
0.11135945 0.11323894 0.55385321 26214
0.11229922 0.11323897 0.55385333 26214
0.11323899 0.11323899 0.55385345 26214
0.11417875 0.11323901 0.55385357 26214
0.11511853 0.11323904 0.55385369 26214
0.11605829 0.11323906 0.55385381 26214
0.11699806 0.11323909 0.55385393 26214
0.11793782 0.1132391 0.55385399 26214
0.11887758 0.11323912 0.55385411 26214
0.11981735 0.11323915 0.55385423 26214
0.12075714 0.11323918 0.55385441 26214
0.1216969 0.1132392 0.55385447 26214
0.12263665 0.11323921 0.55385453 26214
0.12357644 0.11323924 0.5538547 26214
0.1245162 0.11323926 0.55385476 26214
0.12545596 0.11323928 0.55385488 26214
0.12639575 0.1132393 0.553855 26214
0.12733552 0.11323933 0.55385512 26214
0.12827529 0.11323936 0.55385524 26214
0.12921505 0.11323937 0.5538553 26214
0.10474355 0.12178317 0.59074074 26112
0.10474414 0.12062951 0.58514464 26112
0.10474416 0.11949686 0.5796504 26112
0.10473976 0.11838029 0.57423419 26214
0.10473714 0.11728629 0.56892747 26214
0.10473411 0.11621182 0.56371546 26214
0.10473105 0.11515677 0.55859768 26214
0.10501686 0.11443541 0.55509853 26214
0.1059587 0.1144354 0.55509847 26214
0.10690054 0.11443538 0.55509841 26214
0.1078424 0.11443538 0.55509841 26214
0.10878424 0.11443537 0.55509835 26214
0.10972609 0.11443536 0.5550983 26214
0.11066791 0.11443534 0.55509818 26214
0.11160976 0.11443532 0.55509812 26214
0.11255165 0.11443536 0.5550983 26214
0.11349353 0.11443538 0.55509841 26214
0.11443541 0.11443541 0.55509853 26214
0.11537729 0.11443543 0.55509865 26214
0.11631917 0.11443546 0.55509877 26214
0.11726105 0.11443549 0.55509889 26214
0.11820292 0.11443549 0.55509895 26214
0.1191448 0.11443552 0.55509907 26214
0.12008668 0.11443555 0.55509919 26214
0.12102856 0.11443557 0.55509931 26214
0.12197044 0.11443559 0.55509943 26214
0.12291233 0.11443562 0.55509955 26214
0.12385421 0.11443564 0.55509967 26214
0.12479609 0.11443566 0.55509973 26214
0.12573797 0.11443568 0.55509984 26214
0.12667985 0.1144357 0.55509996 26214
0.12762174 0.11443573 0.55510008 26214
0.12856363 0.11443575 0.5551002 26214
0.12950552 0.11443578 0.55510032 26214
0.10474355 0.1227855 0.59074074 26112
0.10474414 0.12162235 0.58514464 26112
0.10474416 0.12048037 0.5796504 26112
0.10474017 0.11935508 0.57423645 26189
0.10473754 0.11825207 0.56892967 26214
0.1047345 0.11716874 0.5637176 26214
0.10473146 0.11610501 0.55859983 26214
0.1052535 0.11563724 0.55634934 26214
0.10619745 0.11563724 0.55634928 26214
0.10714142 0.11563722 0.55634922 26214
0.1080854 0.11563722 0.55634922 26214
0.10902937 0.11563721 0.55634916 26214
0.10997333 0.1156372 0.5563491 26214
0.11091731 0.1156372 0.5563491 26214
0.11186126 0.11563717 0.55634898 26214
0.11280524 0.11563717 0.55634898 26214
0.11374921 0.11563717 0.55634898 26214
0.11469322 0.1156372 0.5563491 26214
0.11563722 0.11563722 0.55634922 26214
0.11658121 0.11563724 0.55634928 26214
0.1175252 0.11563724 0.55634934 26214
0.11846922 0.11563728 0.55634952 26214
0.11941322 0.1156373 0.55634964 26214
0.12035722 0.11563733 0.55634975 26214
0.12130123 0.11563735 0.55634987 26214
0.12224523 0.11563738 0.55634999 26214
0.12318923 0.11563741 0.55635011 26214
0.12413324 0.11563743 0.55635023 26214
0.12507725 0.11563745 0.55635035 26214
0.12602125 0.11563748 0.55635047 26214
0.12696524 0.11563749 0.55635053 26214
0.12790926 0.11563752 0.55635065 26214
0.12885326 0.11563754 0.55635077 26214
0.12979726 0.11563756 0.55635089 26214
0.10474355 0.12378783 0.59074074 26112
0.10474414 0.12261519 0.58514464 26112
0.10474416 0.12146389 0.5796504 26112
0.10474059 0.12032989 0.57423872 26189
0.10473796 0.11921787 0.56893194 26214
0.10473491 0.11812568 0.56371981 26214
0.10473186 0.11705326 0.55860198 26214
0.1054912 0.11684451 0.5576058 26214
0.1064373 0.1168445 0.55760574 26214
0.10738341 0.1168445 0.55760574 26214
0.10832949 0.11684448 0.55760562 26214
0.1092756 0.11684448 0.55760562 26214
0.1102217 0.11684446 0.55760556 26214
0.1111678 0.11684445 0.5576055 26214
0.1121139 0.11684445 0.5576055 26214
0.11306 0.11684444 0.55760545 26214
0.11400609 0.11684442 0.55760539 26214
0.11495219 0.11684441 0.55760533 26214
0.11589833 0.11684444 0.55760545 26214
0.11684445 0.11684445 0.5576055 26214
0.11779058 0.11684448 0.55760562 26214
0.11873671 0.1168445 0.55760574 26214
0.11968285 0.11684452 0.55760586 26214
0.12062898 0.11684455 0.55760598 26214
0.12157512 0.11684457 0.5576061 26214
0.12252126 0.11684459 0.55760622 26214
0.12346739 0.11684462 0.55760634 26214
0.12441352 0.11684463 0.5576064 26214
0.12535965 0.11684466 0.55760652 26214
0.12630579 0.11684468 0.55760664 26214
0.12725194 0.11684471 0.55760676 26214
0.12819807 0.11684474 0.55760688 26214
0.12914421 0.11684476 0.557607 26214
0.13009034 0.11684479 0.55760711 4600884
0.10474355 0.12479016 0.59074074 26112
0.10474414 0.12360802 0.58514464 26112
0.10474416 0.1224474 0.5796504 26112
0.10474419 0.12130839 0.57425845 26163
0.10473835 0.12018365 0.56893408 26214
0.10473531 0.11908261 0.56372195 26214
0.10478173 0.11805725 0.55886799 26214
0.10572997 0.11805724 0.55886793 26214
0.10667821 0.11805722 0.55886787 26214
0.10762647 0.11805722 0.55886787 26214
0.1085747 0.11805721 0.55886781 26214
0.10952295 0.1180572 0.55886775 26214
0.11047118 0.11805718 0.55886769 26214
0.11141943 0.11805718 0.55886769 26214
0.11236767 0.11805718 0.55886763 26214
0.11331591 0.11805716 0.55886757 26214
0.11426416 0.11805716 0.55886757 26214
0.11521239 0.11805713 0.55886745 26214
0.11616064 0.11805713 0.55886745 26214
0.11710888 0.11805713 0.55886745 26214
0.11805716 0.11805716 0.55886757 26214
0.11900543 0.11805718 0.55886769 26214
0.1199537 0.1180572 0.55886775 26214
0.12090197 0.11805722 0.55886787 26214
0.12185025 0.11805725 0.55886799 26214
0.12279853 0.11805727 0.55886811 26214
0.1237468 0.1180573 0.55886823 26214
0.12469508 0.11805733 0.55886835 26214
0.12564336 0.11805735 0.55886847 26214
0.12659164 0.11805738 0.55886859 26214
0.1275399 0.11805739 0.55886865 26214
0.12848818 0.11805741 0.55886877 26214
0.12943646 0.11805744 0.55886889 26214
0.10474355 0.12579249 0.59074074 26112
0.10474414 0.12460086 0.58514464 26112
0.10474417 0.12343092 0.57965046 26112
0.10474419 0.12228275 0.57425845 26138
0.10473877 0.12114946 0.56893635 26214
0.10473572 0.12003957 0.56372416 26214
0.10501944 0.11927547 0.56013584 26214
0.10596985 0.11927547 0.56013584 26214
0.10692023 0.11927545 0.56013572 26214
0.10787062 0.11927545 0.56013572 26214
0.10882102 0.11927544 0.56013566 26214
0.10977142 0.11927544 0.56013566 26214
0.11072181 0.11927543 0.5601356 26214
0.1116722 0.11927541 0.56013554 26214
0.11262259 0.1192754 0.56013548 26214
0.11357298 0.11927538 0.56013542 26214
0.11452338 0.11927538 0.56013542 26214
0.11547377 0.11927538 0.56013536 26214
0.11642416 0.11927536 0.5601353 26214
0.11737455 0.11927535 0.56013525 26214
0.11832495 0.11927535 0.56013525 26214
0.11927535 0.11927535 0.56013525 26214
0.12022577 0.11927538 0.56013536 26214
0.12117621 0.1192754 0.56013548 26214
0.12212665 0.11927544 0.56013566 26214
0.12307706 0.11927545 0.56013572 26214
0.12402748 0.11927547 0.56013584 26214
0.12497792 0.1192755 0.56013596 26214
0.12592834 0.11927553 0.56013608 26214
0.12687877 0.11927556 0.5601362 26214
0.12782921 0.11927558 0.56013632 26214
0.12877963 0.1192756 0.56013644 26214
0.12973006 0.11927563 0.56013656 26214
0.10474414 0.12559369 0.58514464 26112
0.10474417 0.12441444 0.57965046 26112
0.10474419 0.12325711 0.57425845 26138
0.10473918 0.12211527 0.56893855 26214
0.10473612 0.12099653 0.56372631 26214
0.10525823 0.12049925 0.56140947 26214
0.1062108 0.12049925 0.56140947 26214
0.10716335 0.12049923 0.56140941 26214
0.1081159 0.12049922 0.56140935 26214
0.10906845 0.12049921 0.56140929 26214
0.110021 0.12049919 0.56140924 26214
0.11097357 0.12049919 0.56140924 26214
0.11192612 0.12049919 0.56140918 26214
0.11287867 0.12049917 0.56140912 26214
0.11383122 0.12049916 0.56140906 26214
0.11478378 0.12049916 0.56140906 26214
0.11573634 0.12049914 0.561409 26214
0.11668888 0.12049913 0.56140894 26214
0.11764143 0.12049912 0.56140888 26214
0.11859399 0.12049912 0.56140888 26214
0.11954654 0.1204991 0.56140882 26214
0.1204991 0.1204991 0.56140876 26214
0.12145168 0.12049912 0.56140888 26214
0.12240428 0.12049916 0.56140906 26214
0.12335686 0.12049917 0.56140912 26214
0.12430945 0.12049919 0.56140924 26214
0.12526204 0.12049922 0.56140935 26214
0.12621462 0.12049925 0.56140947 26214
0.12716721 0.12049926 0.56140953 26214
0.1281198 0.12049928 0.56140965 26214
0.12907238 0.12049931 0.56140977 26214
0.13002497 0.12049934 0.56140989 4600884
0.10474414 0.12658653 0.58514464 26112
0.10474417 0.12539795 0.57965046 26112
0.10474419 0.12423147 0.57425845 26112
0.1047396 0.1230811 0.56894082 26214
0.10473652 0.12195348 0.56372845 26214
0.10549812 0.12172861 0.56268895 26214
0.10645285 0.12172859 0.56268889 26214
0.10740757 0.12172858 0.56268883 26214
0.1083623 0.12172858 0.56268883 26214
0.10931701 0.12172855 0.56268871 26214
0.11027174 0.12172855 0.56268871 26214
0.11122647 0.12172854 0.56268865 26214
0.1121812 0.12172854 0.56268865 26214
0.11313593 0.12172852 0.56268859 26214
0.11409064 0.12172851 0.56268853 26214
0.11504537 0.1217285 0.56268847 26214
0.11600009 0.12172849 0.56268841 26214
0.11695482 0.12172849 0.56268841 26214
0.11790954 0.12172847 0.56268835 26214
0.11886426 0.12172846 0.56268829 26214
0.11981899 0.12172845 0.56268823 26214
0.12077372 0.12172845 0.56268823 26214
0.12172844 0.12172844 0.56268817 26214
0.12268318 0.12172845 0.56268823 26214
0.12363793 0.12172846 0.56268829 26214
0.12459268 0.12172849 0.56268841 26214
0.12554745 0.12172851 0.56268853 26214
0.1265022 0.12172854 0.56268865 26214
0.12745696 0.12172856 0.56268877 26214
0.12841173 0.12172859 0.56268889 26214
0.12936649 0.12172861 0.56268901 26214
0.10474416 0.12757938 0.5851447 26112
0.10474417 0.12638147 0.57965046 26112
0.10474419 0.12520584 0.57425845 26112
0.10474 0.12404691 0.56894302 26214
0.10478219 0.12296358 0.56397426 26214
0.10573909 0.12296356 0.5639742 26214
0.10669599 0.12296355 0.56397414 26214
0.10765291 0.12296355 0.56397414 26214
0.10860982 0.12296353 0.56397408 26214
0.10956672 0.12296353 0.56397402 26214
0.11052362 0.12296351 0.56397396 26214
0.11148053 0.12296351 0.56397396 26214
0.11243744 0.1229635 0.5639739 26214
0.11339434 0.12296348 0.56397384 26214
0.11435126 0.12296348 0.56397384 26214
0.11530814 0.12296346 0.56397372 26214
0.11626506 0.12296346 0.56397372 26214
0.11722196 0.12296344 0.56397367 26214
0.11817886 0.12296343 0.56397361 26214
0.11913577 0.12296343 0.56397361 26214
0.12009268 0.12296342 0.56397355 26214
0.12104958 0.12296341 0.56397349 26214
0.12200648 0.12296339 0.56397343 26214
0.12296339 0.12296339 0.56397343 26214
0.12392029 0.12296338 0.56397337 26214
0.12487724 0.12296341 0.56397349 26214
0.12583417 0.12296343 0.56397361 26214
0.12679112 0.12296346 0.56397372 26214
0.12774806 0.12296348 0.56397384 26214
0.12870499 0.12296351 0.56397396 26214
0.12966192 0.12296353 0.56397402 26214
0.10474416 0.12857221 0.5851447 26112
0.10474417 0.12736498 0.57965046 26112
0.10474419 0.1261802 0.57425845 26112
0.10474041 0.12501274 0.56894523 26189
0.10502209 0.1242042 0.56526548 26214
0.10598119 0.12420419 0.56526542 26214
0.10694028 0.12420418 0.56526536 26214
0.10789938 0.12420417 0.5652653 26214
0.10885847 0.12420415 0.56526524 26214
0.10981757 0.12420415 0.56526524 26214
0.11077666 0.12420414 0.56526518 26214
0.11173576 0.12420413 0.56526512 26214
0.11269485 0.12420411 0.56526506 26214
0.11365394 0.1242041 0.565265 26214
0.11461305 0.1242041 0.565265 26214
0.11557214 0.12420408 0.56526494 26214
0.11653124 0.12420408 0.56526488 26214
0.11749033 0.12420406 0.56526482 26214
0.11844943 0.12420406 0.56526482 26214
0.11940853 0.12420405 0.56526476 26214
0.12036762 0.12420403 0.5652647 26214
0.12132671 0.12420402 0.56526464 26214
0.1222858 0.12420401 0.56526458 26214
0.1232449 0.12420401 0.56526458 26214
0.12420399 0.12420399 0.56526452 26214
0.12516309 0.12420399 0.56526452 26214
0.12612221 0.12420399 0.56526452 26214
0.12708132 0.12420401 0.56526458 26214
0.12804045 0.12420403 0.5652647 26214
0.12899959 0.12420406 0.56526482 26214
0.12995872 0.12420408 0.56526494 4600884
0.10474416 0.12956505 0.5851447 26112
0.10474418 0.1283485 0.57965052 26112
0.10474419 0.12715457 0.57425845 26112
0.10474081 0.12597857 0.56894737 26189
0.10526307 0.12545051 0.56656253 26214
0.10622437 0.12545049 0.56656247 26214
0.10718568 0.12545049 0.56656247 26214
0.10814696 0.12545048 0.56656235 26214
0.10910826 0.12545048 0.56656235 26214
0.11006956 0.12545046 0.56656229 26214
0.11103086 0.12545046 0.56656229 26214
0.11199216 0.12545045 0.56656224 26214
0.11295345 0.12545043 0.56656218 26214
0.11391475 0.12545042 0.56656212 26214
0.11487604 0.1254504 0.56656206 26214
