# .PCD v0.7 - Point Cloud Data file format
VERSION 0.7
FIELDS x y z rgb
SIZE 4 4 4 4
TYPE F F F U
COUNT 1 1 1 1
WIDTH 1178
HEIGHT 1
VIEWPOINT 0 0 0 1 0 0 0
POINTS 1178
DATA ascii
0.16676483 0.065135293 0.54451919 1118481
0.16772507 0.065149412 0.5446372 1184273
0.16868576 0.065163545 0.54475534 1184274
0.16964686 0.065177672 0.54487348 1184274
0.17060703 0.065191306 0.54498744 1184274
0.17156278 0.065203108 0.54508609 1250067
0.17249869 0.06520728 0.54512095 1250067
0.1734256 0.065208025 0.54512721 1250067
0.17435256 0.065208778 0.54513353 1250067
0.17527668 0.065208472 0.54513097 1250067
0.17618592 0.065202661 0.54508239 1250067
0.17708454 0.065193005 0.54500163 1250067
0.1779829 0.065183349 0.54492092 1250067
0.17888097 0.065173686 0.54484016 1250067
0.17977881 0.065164044 0.54475951 1250067
0.18067637 0.065154396 0.54467887 1250066
0.18157656 0.065145791 0.54460692 1250066
0.18249463 0.065143652 0.54458904 1250067
0.18341264 0.065141521 0.54457122 1250067
0.1843306 0.065139383 0.5445534 1250066
0.18529898 0.065154999 0.54468393 1184274
0.1864472 0.065233387 0.54533923 1052688
0.15291046 0.066061012 0.54453415 592137
0.15350506 0.065919586 0.5433684 986894
0.15430532 0.065867648 0.54294026 986895
0.15513031 0.065826811 0.54260361 986895
0.15601087 0.065809891 0.5424642 986895
0.15696505 0.065824054 0.5425809 986895
0.15791963 0.06583821 0.54269761 986895
0.15888381 0.065856189 0.54284579 986895
0.15985635 0.0658774 0.54302067 986895
0.1608347 0.06590075 0.54321313 986895
0.16181375 0.065924123 0.54340577 986895
0.16279352 0.065947518 0.54359859 1052688
0.16377392 0.065970905 0.54379141 1052688
0.16475511 0.065994345 0.54398459 1052688
0.16573693 0.066017769 0.54417771 1118480
0.16670229 0.066034421 0.54431498 1118481
0.16766217 0.066048734 0.54443294 1118481
0.16862249 0.066063061 0.54455101 1184017
0.1695832 0.066077374 0.54466903 1184274
0.17054434 0.066091709 0.54478717 1184274
0.17150316 0.066104993 0.54489666 1184274
0.17244004 0.066109724 0.54493564 1249810
0.17336611 0.066110276 0.54494023 1184274
0.17428955 0.066109829 0.54493654 1184274
0.17521299 0.066109389 0.5449329 1184274
0.1761262 0.066105105 0.54489762 1184274
0.17702454 0.066095322 0.54481697 1184274
0.17792261 0.06608554 0.54473633 1184274
0.17882039 0.06607575 0.54465562 1184274
0.17971785 0.066065945 0.5445748 1184274
0.18061379 0.066055685 0.54449022 1184274
0.18150951 0.066045448 0.54440582 1184273
0.18241979 0.066040583 0.54436576 1184274
0.18333781 0.066038556 0.54434901 1184274
0.18425576 0.06603653 0.54433233 1184274
0.18524651 0.066060476 0.54452974 1184274
0.18636639 0.066130012 0.54510289 1052688
0.15254678 0.067231864 0.54654139 2039583
0.15278275 0.066928998 0.54407936 723723
0.15343709 0.066811949 0.54312783 986894
0.15426339 0.066770718 0.54279268 986895
0.15508814 0.066729322 0.54245615 921102
0.15599015 0.066721454 0.54239219 921102
0.1569442 0.066735804 0.54250884 921102
0.15789863 0.066750154 0.54262549 921102
0.15885755 0.066766217 0.54275608 921102
0.15983 0.06678775 0.54293114 921102
0.16080818 0.06681142 0.54312354 986894
0.16178709 0.066835128 0.54331625 986895
0.16276665 0.066858821 0.54350889 986895
0.16374594 0.066882148 0.54369849 1052431
0.16472472 0.066904999 0.54388428 1052687
0.16570419 0.06692788 0.54407024 1052688
0.16665792 0.066940166 0.54417014 1052688
0.1676116 0.066952296 0.54426873 1052688
0.16856837 0.06696552 0.54437625 1118481
0.16952552 0.066978745 0.54448378 1118481
0.17048304 0.066991985 0.54459137 1118481
0.17144154 0.067005448 0.54470086 1184273
0.17238005 0.067011006 0.54474604 1184274
0.17330316 0.067010552 0.54474235 1184273
0.17422625 0.067010097 0.54473865 1184017
0.17514937 0.06700965 0.54473501 1118481
0.17606655 0.067006953 0.54471308 1118481
0.17696458 0.066997036 0.54463243 1118481
0.17786214 0.066987038 0.54455119 1118481
0.17875835 0.066976644 0.54446667 1118481
0.17965427 0.066966243 0.54438215 1118481
0.18054996 0.066955872 0.54429781 1118481
0.18144532 0.066945471 0.54421329 1118481
0.18234448 0.066936582 0.54414099 1118481
0.18326208 0.066934511 0.54412419 1118481
0.18418814 0.066935539 0.54413253 1118481
0.18519118 0.066964388 0.54436707 1118481
0.18628566 0.067025855 0.54486674 986895
0.15220921 0.068008371 0.54533195 1315860
0.15268025 0.067806639 0.54371434 789516
0.15338992 0.067712665 0.54296082 921102
0.15421703 0.067671359 0.5426296 921102
0.15504318 0.067630112 0.54229885 921102
0.15597199 0.067633875 0.54232901 920845
0.15692361 0.06764742 0.54243767 921101
0.15787767 0.067661859 0.54255342 921102
0.1588324 0.06767641 0.54267013 921102
0.15980367 0.067697816 0.54284173 921102
0.16078143 0.067721687 0.54303318 921102
0.16175799 0.067744799 0.54321849 921102
0.16273524 0.067767933 0.54340398 986894
0.16371313 0.067791067 0.54358953 986895
0.16469173 0.067814238 0.54377532 986895
0.1656681 0.06783624 0.54395175 986895
0.1666187 0.067847505 0.54404205 1052687
0.16756961 0.067858763 0.54413235 1052688
0.16852246 0.067870691 0.54422796 1052688
0.16947936 0.067884095 0.54433548 1052688
0.17043662 0.067897514 0.54444307 1118480
0.17139424 0.067910925 0.5445506 1118481
0.17232482 0.067913532 0.54457152 1118481
0.17324594 0.067912407 0.54456246 1118481
0.17416705 0.06791129 0.54455352 1118481
0.17508809 0.067910157 0.54454446 1118224
0.17600806 0.067908622 0.54453212 1052688
0.17690308 0.067897528 0.54444319 1052688
0.17779925 0.067886993 0.54435867 1052688
0.17869516 0.067876458 0.54427421 1052688
0.17959079 0.06786593 0.54418981 1052688
0.18048613 0.067855395 0.54410535 1052688
0.18138121 0.067844883 0.54402101 1052688
0.18227598 0.067834355 0.54393661 1052688
0.18318647 0.06782975 0.54389971 1052688
0.18414311 0.0678422 0.54399949 1052688
0.18513104 0.06786599 0.54419029 1052688
0.18621519 0.067924649 0.54466063 986895
0.15206306 0.06886746 0.54480833 460551
0.15259315 0.068689965 0.54340416 855309
0.15334272 0.068612814 0.54279381 921102
0.15416962 0.068570964 0.54246277 921102
0.15502258 0.068541139 0.54222679 855309
0.15596069 0.068549097 0.54228973 855309
0.15691225 0.068562828 0.54239839 855309
0.15786423 0.068576589 0.54250723 855309
0.15881656 0.068590336 0.54261601 855309
0.15978073 0.068609014 0.54276377 855309
0.16074926 0.068629339 0.54292452 920845
0.16172563 0.068652764 0.54310983 921102
0.16270266 0.068676196 0.5432952 921102
0.16368037 0.06869965 0.54348075 921102
0.16465871 0.068723105 0.5436663 921102
0.16562913 0.068743005 0.54382378 986895
0.16657951 0.06875442 0.54391408 986895
0.16753018 0.068765834 0.54400432 986895
0.16848117 0.068777248 0.54409462 986895
0.16943319 0.068788953 0.54418725 1052687
0.17039017 0.068802536 0.54429471 1052688
0.17134754 0.068816133 0.54440224 1052688
0.1722717 0.068816312 0.54440367 1052688
0.17319253 0.068815164 0.54439461 1052688
0.17411436 0.068814427 0.54438877 1052688
0.17504674 0.068817846 0.54441583 1052688
0.17596748 0.068816677 0.54440659 1052688
0.17686146 0.068805113 0.5443151 1052687
0.17775515 0.06879355 0.54422361 1052687
0.17864852 0.068781987 0.54413211 1052431
0.1795416 0.068770431 0.54404074 986895
0.18043436 0.068758875 0.54394931 986895
0.18132684 0.068747327 0.54385793 986895
0.18221903 0.068735786 0.54376662 986895
0.18313536 0.068733424 0.54374796 986895
0.18409809 0.068748407 0.54386652 986895
0.18507092 0.068766996 0.54401356 1052687
0.18615927 0.068828121 0.54449707 986638
0.15191719 0.06972491 0.54428571 526344
0.15253043 0.069583371 0.54318082 855309
0.15329558 0.069512412 0.54262692 855309
0.15413502 0.069475785 0.54234099 855309
0.15501699 0.069458649 0.54220724 855052
0.15595172 0.06946522 0.54225856 789516
0.1569009 0.069478109 0.54235917 789516
0.15785278 0.069492042 0.54246789 855052
0.15881228 0.069509141 0.54260141 855309
0.15977727 0.069528438 0.54275203 855309
0.16074339 0.069548003 0.54290473 855309
0.1617102 0.069567643 0.54305804 855309
0.16267759 0.06958729 0.54321146 855309
0.16364758 0.069607839 0.54337186 921101
0.16462575 0.069631621 0.54355747 921102
0.16559015 0.069649339 0.54369581 921102
0.16654031 0.069660909 0.54378611 921102
0.16749075 0.069672458 0.54387629 986638
0.16844152 0.069684029 0.54396659 986895
0.16939259 0.069695592 0.54405683 986895
0.170344 0.069707163 0.54414719 986895
0.171298 0.069719672 0.54424483 986895
0.17221859 0.069718517 0.54423583 986895
0.17315015 0.069721796 0.5442614 986895
0.17408225 0.069725253 0.5442884 986895
0.17501445 0.06972871 0.5443154 986895
0.17592695 0.069724329 0.54428118 986895
0.17682073 0.069712609 0.54418969 986895
0.1777142 0.069700897 0.54409826 986895
0.17860737 0.069689184 0.54400682 986895
0.17950025 0.06967748 0.54391545 986895
0.18039392 0.069666192 0.54382735 986638
0.18129352 0.069657303 0.54375798 921102
0.18219289 0.069648422 0.54368865 921102
0.18310337 0.069643848 0.54365295 921102
0.18405701 0.069655664 0.54374516 986895
0.18501647 0.069669545 0.54385352 986895
0.18612811 0.06974031 0.54440594 921102
0.15140598 0.070841327 0.5457719 2039583
0.15177795 0.070583671 0.54378688 657930
0.15247175 0.070477881 0.54297185 855309
0.1532492 0.070411801 0.54246277 855309
0.15411286 0.070385873 0.54226303 789516
0.15501142 0.070376098 0.54218775 789516
0.15594611 0.070382752 0.54223901 789516
0.15688954 0.070393257 0.54231989 789516
0.15784465 0.070408836 0.54243994 789516
0.15880911 0.070428386 0.54259056 789516
0.15977408 0.070447937 0.54274118 855309
0.16073972 0.070467554 0.54289234 855309
0.16170654 0.070487462 0.5430457 855309
0.16267389 0.070507377 0.54319912 855309
0.16364178 0.0705273 0.5433526 855309
0.16461022 0.070547238 0.54350621 855309
0.16556393 0.070560671 0.54360968 855309
0.16651337 0.070572153 0.54369813 921101
0.16746312 0.070583634 0.54378659 921102
0.16841318 0.070595115 0.54387504 921102
0.16936354 0.070606604 0.54396355 921102
0.17031424 0.0706181 0.54405212 986638
0.17125513 0.070625432 0.54410863 986638
0.17218639 0.070628732 0.54413408 986638
0.17311823 0.070632242 0.54416108 986638
0.17405017 0.070635743 0.54418808 921102
0.17498219 0.070639253 0.54421508 921102
0.17588639 0.070631541 0.54415572 921102
0.17677999 0.070619687 0.54406434 921102
0.17767327 0.070607819 0.54397291 921102
0.17856891 0.070597015 0.5438897 921102
0.17946889 0.070588015 0.54382038 921102
0.18036859 0.070579015 0.543751 921102
0.18126805 0.070570007 0.54368162 920845
0.18217017 0.070562117 0.54362082 920845
0.18308289 0.070558392 0.54359215 921102
0.18402106 0.070564464 0.54363894 921102
0.18498664 0.070580937 0.54376584 921102
0.18609694 0.070652187 0.54431474 855309
0.15124068 0.07168901 0.54517609 460551
0.15169249 0.071466066 0.54348069 723722
0.15241323 0.071371756 0.54276347 855052
0.15322715 0.071321949 0.54238468 789516
0.15409063 0.071295664 0.54218483 789516
0.15500581 0.071293473 0.54216814 723723
0.15594049 0.071300223 0.54221946 723723
0.15687817 0.071308263 0.54228061 723723
0.1578415 0.071327791 0.54242915 723723
0.15880591 0.071347587 0.54257965 789516
0.15977086 0.07136739 0.54273027 789516
0.16073635 0.071387202 0.54288095 789516
0.16170284 0.071407236 0.5430333 855308
0.16267017 0.071427412 0.54318672 855309
0.16363804 0.071447596 0.54334021 855309
0.16460013 0.071465045 0.54347289 855309
0.16555296 0.071478292 0.54357368 855309
0.16650234 0.07148993 0.54366213 855309
0.16745204 0.071501561 0.54375058 855309
0.16840205 0.071513198 0.5438391 855309
0.16935235 0.071524836 0.54392761 920845
0.17029515 0.071533196 0.54399115 921101
0.17122564 0.071536317 0.54401493 921101
0.17215621 0.071539447 0.54403871 921102
0.17308687 0.071542576 0.5440625 921102
0.17401809 0.071545899 0.54408777 921102
0.17494991 0.071549438 0.54411471 921101
0.17584592 0.071538366 0.54403049 921101
0.17674351 0.071528047 0.54395205 920845
0.17764379 0.071518928 0.54388267 855309
0.17854384 0.071509801 0.54381329 855309
0.17944366 0.071500689 0.54374397 855309
0.18034329 0.071491584 0.54367471 855309
0.18124264 0.071482465 0.54360539 855309
0.18214981 0.071476512 0.54356009 855309
0.18306239 0.071472727 0.5435313 855309
0.18398514 0.071472928 0.54353285 855309
0.18496811 0.071496405 0.54371136 921101
0.18606575 0.071563751 0.54422355 855309
0.15107578 0.072534852 0.54458165 591880
0.15163769 0.072362058 0.54328436 723723
0.15236273 0.072268732 0.54258364 789516
0.15321398 0.072236024 0.54233807 789515
0.15406847 0.072205223 0.54210687 723723
0.15500262 0.072211906 0.54215699 723723
0.15594041 0.072220191 0.54221922 657930
0.15688568 0.072231822 0.54230654 657930
0.15784344 0.07224904 0.54243582 723723
0.15880273 0.07226675 0.5425688 723723
0.15976767 0.072286814 0.54271942 789516
0.16073313 0.072306886 0.5428701 789516
0.16169916 0.072326981 0.54302096 789516
0.16266645 0.072347403 0.54317433 789516
0.16363433 0.072367854 0.54332787 789516
0.16458775 0.072381727 0.543432 789516
0.16554064 0.072395205 0.54353321 789516
0.16649131 0.072407581 0.54362613 789516
0.16744097 0.072419375 0.54371464 789516
0.16839088 0.072431147 0.54380304 855308
0.16933556 0.07244055 0.54387367 855309
0.17026579 0.072443716 0.54389739 855309
0.17119612 0.072446875 0.54392111 855309
0.17212656 0.072450057 0.54394501 855309
0.17305705 0.072453216 0.54396874 855309
0.17398785 0.072456479 0.54399323 855309
0.17492208 0.072461121 0.5440281 855309
0.17582192 0.072451547 0.54395622 855309
0.17671962 0.072441205 0.54387856 855309
0.17761885 0.072431579 0.54380631 855308
0.17851879 0.072422348 0.54373699 855052
0.17941846 0.072413109 0.54366761 789516
0.18031797 0.072403893 0.54359841 789516
0.18121721 0.072394662 0.54352909 789516
0.18212941 0.072390683 0.54349923 789516
0.18304192 0.072386853 0.5434705 855052
0.18395434 0.072383039 0.54344183 855309
0.18494958 0.072411679 0.54365689 855309
0.18603531 0.072475292 0.5441345 789516
0.15076382 0.073758304 0.54680151 2039583
0.15091528 0.073380828 0.54400313 657929
0.15158367 0.073257767 0.54309082 723723
0.15235469 0.073185481 0.54255497 789259
0.15320542 0.07315214 0.54230779 723723
0.15407565 0.073128447 0.54213214 657930
0.1550076 0.073134147 0.5421744 657930
0.15594544 0.073142551 0.54223669 657673
0.15689746 0.073157467 0.54234725 657930
0.15785573 0.073175102 0.54247802 657930
0.15881388 0.073192485 0.54260689 657930
0.15977202 0.073209658 0.54273421 723723
0.16073065 0.073226862 0.5428617 723723
0.1616959 0.073246859 0.54301 789516
0.16266274 0.073267356 0.54316193 789516
0.16362289 0.073284619 0.5432899 789516
0.16457534 0.073298261 0.54339105 789515
0.16552818 0.073311925 0.54349232 789259
0.16648032 0.073325127 0.54359019 723723
0.16742986 0.073337048 0.54367858 789516
0.16837636 0.073347509 0.54375613 789516
0.16930637 0.073350713 0.54377991 789516
0.17023647 0.073353924 0.54380369 789516
0.17116664 0.073357135 0.54382747 789516
0.17210369 0.073363237 0.54387271 789516
0.17304151 0.0733696 0.54391992 789516
0.17397952 0.073375978 0.54396719 789516
0.17490651 0.073377669 0.5439797 789516
0.17581718 0.073372521 0.54394156 789516
0.17671482 0.07336203 0.54386377 789516
0.17761227 0.073351562 0.54378617 789516
0.17850943 0.073341087 0.5437085 789516
0.17940633 0.073330611 0.54363084 789516
0.18030301 0.07332015 0.54355329 789516
0.1812024 0.073310897 0.54348469 789515
0.18211448 0.073306844 0.54345465 789516
0.18302698 0.073302999 0.54342616 789516
0.18393943 0.07329917 0.54339778 789516
0.18493108 0.073326789 0.54360253 789516
0.18601352 0.073389955 0.54407078 789516
0.1503513 0.074481726 0.54530537 526344
0.15083016 0.074261941 0.54369628 657930
0.15152967 0.07415282 0.54289734 723723
0.15234664 0.074102141 0.5425263 723723
0.15319689 0.074068166 0.54227757 723466
0.1540864 0.074053466 0.54216993 657930
0.15501258 0.074056454 0.5421918 592137
0.15595137 0.074065402 0.54225731 592137
0.15690924 0.074083254 0.54238802 592137
0.15786758 0.074101105 0.54251873 592137
0.15882638 0.074118979 0.54264957 592137
0.15978493 0.074136518 0.54277802 657930
0.16074361 0.07415393 0.54290545 657930
0.16170275 0.074171349 0.543033 723723
0.16266195 0.074188598 0.54315931 723723
0.16361058 0.074200854 0.54324901 723723
0.16456296 0.074214667 0.54335016 723723
0.16551571 0.074228495 0.54345137 723723
0.16646881 0.074242324 0.54355264 723723
0.16741759 0.074254081 0.54363871 723723
0.16834737 0.074257337 0.54366255 723723
0.16928306 0.074263141 0.54370505 723723
0.17022036 0.074269585 0.54375225 723723
0.17115782 0.074276038 0.54379946 789259
0.17209545 0.074282482 0.54384667 789515
0.17303325 0.074288942 0.54389393 789516
0.17397121 0.074295394 0.5439412 789516
0.17489094 0.074294038 0.54393125 789516
0.17580932 0.074292131 0.5439173 789516
0.17671004 0.07428281 0.54384905 789516
0.17760745 0.0742722 0.54377139 789259
0.17850462 0.074261613 0.54369384 723723
0.17940149 0.074251004 0.54361618 723723
0.1802991 0.074240811 0.54354155 723723
0.1812018 0.074232802 0.5434829 723723
0.18210749 0.074226089 0.54343379 723723
0.18301998 0.074222207 0.54340535 723723
0.18393236 0.074218325 0.54337692 789516
0.18491876 0.074244186 0.54356629 789516
0.18599173 0.074304394 0.54400706 723723
0.15019318 0.075327657 0.54473186 592137
0.15077136 0.075155146 0.54348433 657930
0.15149106 0.075054839 0.542759 723723
0.15233856 0.075018689 0.54249758 723722
0.15318835 0.074984089 0.54224735 657930
0.15409714 0.074978605 0.54220772 592137
0.15502268 0.074981295 0.54222715 526344
0.15596308 0.074991092 0.54229802 526344
0.15692103 0.075009167 0.54242873 526344
0.15787944 0.075027257 0.5425595 591880
0.15883832 0.075045347 0.54269034 592137
0.15979767 0.075063452 0.54282129 592137
0.16075657 0.075081155 0.54294926 592137
0.16171582 0.075098798 0.54307687 657930
0.16266884 0.075113371 0.54318225 657930
0.16361736 0.075125717 0.54327154 657930
0.16456617 0.075138055 0.54336077 657930
0.16551535 0.075150423 0.54345018 657930
0.1664695 0.075164899 0.5435549 657930
0.16740601 0.075171292 0.5436011 657930
0.16833785 0.075175531 0.54363179 657930
0.16927496 0.075182065 0.543679 723723
0.17021222 0.0751886 0.54372627 723723
0.17114966 0.075195134 0.54377353 723723
0.17208724 0.07520166 0.54382074 723723
0.17302495 0.07520818 0.54386789 723723
0.17395701 0.075212181 0.54389679 723723
0.17487539 0.075210258 0.54388291 723723
0.17579369 0.075208321 0.5438689 723723
0.17670526 0.075203545 0.54383433 723723
0.17760265 0.075192809 0.54375672 723723
0.17849976 0.075182073 0.54367906 723723
0.17939664 0.075171344 0.54360151 723723
0.18029858 0.075162835 0.54353994 723723
0.18120126 0.075154722 0.54348129 723723
0.18210375 0.075146616 0.54342264 723722
0.18301295 0.07514134 0.54338449 723723
0.1839253 0.075137407 0.54335606 723723
0.1849148 0.075164869 0.54355466 723723
0.18598296 0.075223878 0.54398137 723723
0.14989951 0.076574057 0.54703313 2105376
0.15003903 0.076173656 0.54417276 657930
0.15071262 0.076047659 0.54327261 723722
0.15148303 0.07597173 0.54273021 723723
0.15233052 0.075935155 0.54246891 657930
0.15318231 0.075901143 0.54222596 592137
0.15410787 0.07590387 0.54224545 592137
0.15504168 0.075910613 0.54229361 526344
0.15598871 0.075923704 0.54238713 526344
0.15694202 0.075939693 0.54250133 526344
0.15789576 0.075955689 0.54261559 526344
0.15885025 0.075971864 0.54273117 526344
0.15980966 0.075990185 0.54286206 526344
0.16076955 0.076008528 0.54299307 526344
0.16172744 0.076025724 0.54311591 592137
0.16267571 0.076038219 0.5432052 592137
0.16362876 0.076052807 0.54330939 592137
0.16458413 0.076068297 0.54342008 592137
0.16553986 0.076083787 0.5435307 592137
0.16649543 0.076099016 0.54363954 657930
0.16742435 0.076101981 0.5436607 657930
0.16835384 0.076105163 0.54368341 657930
0.1692839 0.07610856 0.54370773 657930
0.17021401 0.076111957 0.54373199 657930
0.17114425 0.076115362 0.54375631 657930
0.172079 0.076120734 0.54379469 723722
0.17301671 0.07612735 0.54384196 723723
0.17394152 0.076128252 0.5438484 723723
0.17485981 0.0761263 0.54383445 723723
0.17577805 0.076124348 0.5438205 723722
0.17669621 0.076122388 0.54380649 723466
0.17759784 0.076113358 0.543742 657930
0.17849493 0.076102488 0.54366434 657930
0.17939509 0.076093033 0.5435968 657930
0.180298 0.076084837 0.54353821 657930
0.18120071 0.076076634 0.54347962 657930
0.18210317 0.076068416 0.54342091 657930
0.18300593 0.076060399 0.54336363 657930
0.18391824 0.076056413 0.5433352 723723
0.18491086 0.076085515 0.5435431 723723
0.18598533 0.076147839 0.54398829 657930
0.14944793 0.077268749 0.54538518 526344
0.1499792 0.077066235 0.5439558 657930
0.15065391 0.076939456 0.54306096 723466
0.15147519 0.076888621 0.54270214 657930
0.15232265 0.076851606 0.54244089 592137
0.15319741 0.076828733 0.54227942 592137
0.15413417 0.076837033 0.54233801 526344
0.15507388 0.076846704 0.54240626 460551
0.15602183 0.076860316 0.54250234 460551
0.15697525 0.076876447 0.54261619 460551
0.1579292 0.076892644 0.54273051 526343
0.15888354 0.076908849 0.54284489 526344
0.1598383 0.076925062 0.54295933 526344
0.16079345 0.076941282 0.54307383 526344
0.16174492 0.076955564 0.54317462 526344
0.16269968 0.076971233 0.54328525 526344
0.1636548 0.076986909 0.54339588 526344
0.16461031 0.077002585 0.5435065 592137
0.16556621 0.077018261 0.54361719 592137
0.16651401 0.077030025 0.54370022 592137
0.16744304 0.077033028 0.54372138 592137
0.16837214 0.077036023 0.54374254 592137
0.16930199 0.077039324 0.54376584 592137
0.17023221 0.077042758 0.5437901 592137
0.1711625 0.077046193 0.5438143 657930
0.1720929 0.077049635 0.54383862 657930
0.17302282 0.077052824 0.54386115 657930
0.17393374 0.077047579 0.54382408 657930
0.17484455 0.077042326 0.543787 657930
0.1757624 0.07704021 0.5437721 657930
0.17668052 0.077038243 0.54375821 657930
0.17759304 0.077033862 0.54372728 657930
0.17849146 0.077023447 0.54365379 657930
0.17939457 0.077015147 0.54359519 657930
0.18029745 0.077006839 0.54353654 657930
0.18120013 0.076998532 0.54347789 657930
0.18210264 0.076990224 0.5434193 657930
0.1830049 0.07698191 0.54336059 657930
0.18391116 0.076975346 0.54331428 657930
0.18492484 0.077013582 0.54358417 657930
0.18601444 0.07708291 0.54407346 657930
0.14931551 0.078124836 0.54490191 592137
0.14992069 0.077958755 0.54374355 657930
0.15063009 0.077848576 0.54297507 592137
0.15147004 0.077806793 0.54268366 592137
0.15231778 0.077769503 0.54242355 526344
0.15322654 0.077763624 0.54238254 526344
0.15416348 0.077772021 0.54244113 460551
0.15510815 0.07778421 0.54252613 460551
0.15605633 0.077797994 0.54262227 460551
0.1570085 0.077813596 0.54273111 460551
0.15796265 0.077829994 0.54284549 460551
0.15891722 0.077846408 0.54295993 460551
0.15987219 0.077862822 0.54307443 460551
0.16082485 0.077877939 0.54317987 526343
0.16177295 0.077890679 0.54326874 526344
0.16272554 0.077905431 0.54337162 526344
0.16368084 0.077921301 0.5434823 526344
0.16463651 0.077937171 0.54359299 526344
0.16559258 0.077953056 0.54370379 526344
0.16653258 0.077961236 0.54376084 591880
0.16746171 0.077964269 0.543782 591880
0.16839091 0.077967301 0.54380316 591880
0.16932023 0.077970356 0.54382443 591880
0.17025037 0.077973746 0.5438481 592137
0.17118078 0.077977233 0.54387242 592137
0.17211129 0.07798072 0.54389673 592137
0.17303427 0.077980779 0.54389715 592137
0.17394525 0.077975452 0.54386002 592137
0.17485613 0.077970147 0.543823 592137
0.17576687 0.077964835 0.54378593 592137
0.17667748 0.077959515 0.54374886 592137
0.17758894 0.077954628 0.54371476 592137
0.17849283 0.077946484 0.54365796 592137
0.17939593 0.077938072 0.54359931 592137
0.18029881 0.077929668 0.54354066 592137
0.18120149 0.077921249 0.54348195 592137
0.18210395 0.07791283 0.54342324 592137
0.18300627 0.077904433 0.54336464 592137
0.18390837 0.077896029 0.54330605 657673
0.18494751 0.077945456 0.54365081 657930
0.18604355 0.078018263 0.54415858 592137
0.14859641 0.079158835 0.54565632 592137
0.14918564 0.07898064 0.54442799 657930
0.14986959 0.078854464 0.54355824 592137
0.15062881 0.078769192 0.54297048 526344
0.15146486 0.078724898 0.54266512 526087
0.1523513 0.078707173 0.54254293 460551
0.15325595 0.078699008 0.54248667 460551
0.15419438 0.078708179 0.54254991 394758
0.15514244 0.078722127 0.54264605 394758
0.15609084 0.078736082 0.54274225 460294
0.15704176 0.078751147 0.54284608 460551
0.15799613 0.078767747 0.54296052 460551
0.15895091 0.078784361 0.54307503 460551
0.15990606 0.078800969 0.54318953 460551
0.16085406 0.078813881 0.54327852 460551
0.16180234 0.078826785 0.54336745 460551
0.16275147 0.078839943 0.54345816 460551
0.1637069 0.078855999 0.54356885 460551
0.16466272 0.078872055 0.54367954 526344
0.16561896 0.078888141 0.5437904 526344
0.16655114 0.078892648 0.54382145 526344
0.16748039 0.078895725 0.54384267 526344
0.16840971 0.078898795 0.54386383 526344
0.16933911 0.078901872 0.54388505 526344
0.17026858 0.078904949 0.54390627 526344
0.1711991 0.078908481 0.54393059 526344
0.17212968 0.078911997 0.54395485 526344
0.17304572 0.078908853 0.54393315 526344
0.17395678 0.078903474 0.54389608 526344
0.1748677 0.078898095 0.543859 526344
0.17578113 0.078893892 0.54383004 592136
0.17670071 0.078892484 0.54382032 592137
0.17761225 0.078887515 0.54378611 592137
0.1785066 0.078875005 0.54369986 592137
0.17940976 0.078866497 0.54364121 592137
0.18031269 0.078857981 0.5435825 592137
0.18121545 0.078849472 0.54352385 592137
0.182118 0.078840956 0.54346514 592137
0.18302035 0.078832448 0.54340649 592137
0.18393452 0.07882908 0.5433833 592137
0.18497021 0.078877576 0.54371756 657673
0.18607268 0.078953914 0.54424381 592137
0.1484867 0.080025546 0.54525352 592137
0.14913395 0.079876699 0.54423934 592137
0.14982052 0.079750612 0.54338026 526344
0.15062755 0.079689808 0.54296595 460551
0.15147983 0.079653531 0.54271877 460551
0.15238486 0.079645261 0.54266244 394758
0.15328971 0.079636991 0.54260612 394758
0.15422849 0.079646356 0.54266989 394758
0.15517674 0.079660468 0.54276603 394758
0.15612537 0.079674594 0.5428623 394758
0.15707505 0.0796891 0.54296112 394758
0.15802962 0.079705901 0.54307562 394758
0.15898459 0.07972271 0.54319012 460550
0.15993518 0.079737134 0.54328841 460551
0.16088329 0.079750165 0.54337722 460551
0.16183174 0.079763219 0.54346615 460551
0.16278048 0.079776272 0.54355508 460551
0.16373296 0.079790995 0.5436554 460551
0.16468896 0.079807259 0.5437662 460551
0.16564044 0.079821154 0.54386091 460551
0.16656972 0.079824269 0.54388213 460551
0.16749908 0.079827383 0.54390335 460551
0.16842848 0.079830483 0.54392445 460551
0.169358 0.079833604 0.54394573 460551
0.17028758 0.079836719 0.54396695 460551
0.17121738 0.079839915 0.5439887 460551
0.17214596 0.079842493 0.54400629 526344
0.1730572 0.079837054 0.54396921 526344
0.17397252 0.079833545 0.54394531 526344
0.17489235 0.079832129 0.54393566 526344
0.17581211 0.079830691 0.54392588 526344
0.17673187 0.079829276 0.54391623 526344
0.17763218 0.079819135 0.54384714 526344
0.17852584 0.079806119 0.54375845 526344
0.17942359 0.079795063 0.54368311 591880
0.18032657 0.079786435 0.54362434 591880
0.1812294 0.079777829 0.54356569 591880
0.18213204 0.079769224 0.54350704 591880
0.18304034 0.079763167 0.54346579 592136
0.18396969 0.079766311 0.54348719 592137
0.18499291 0.079809912 0.54378426 592137
0.18610181 0.079889856 0.54432899 526344
0.14798197 0.081181332 0.54680699 2105376
0.14840026 0.080903567 0.54493606 592137
0.14908278 0.080772407 0.5440526 592137
0.1498014 0.080662295 0.54331094 460551
0.15064321 0.080619454 0.54302239 460551
0.15151638 0.080593817 0.54284972 394758
0.15242106 0.080585144 0.54279131 328965
0.15333021 0.080578938 0.54274946 328965
0.15426642 0.080586933 0.54280335 328965
0.15521106 0.080599219 0.54288608 394501
0.15615988 0.080613509 0.54298234 394758
0.15710905 0.080627806 0.54307866 394758
0.15806311 0.080644444 0.54319072 394758
0.15901624 0.08066041 0.54329824 394758
0.15996422 0.080673598 0.54338706 394758
0.16091254 0.080686808 0.54347605 394758
0.16186117 0.08070001 0.54356498 394758
0.16281009 0.080713212 0.54365391 394758
0.16375932 0.080726422 0.5437429 394758
0.16471517 0.080742732 0.54385275 460551
0.16565892 0.080752954 0.54392159 460551
0.16658829 0.080756098 0.54394275 460551
0.16751775 0.08075925 0.54396397 460551
0.16844729 0.080762394 0.54398519 460551
0.16937689 0.080765545 0.54400641 460551
0.17030656 0.080768697 0.54402763 460551
0.17123632 0.080771849 0.54404885 460551
0.17216316 0.080773599 0.54406065 460551
0.17308322 0.080772169 0.54405099 460551
0.17400321 0.080770724 0.54404128 460551
0.17492321 0.080769293 0.54403162 526344
0.17584315 0.080767848 0.5440219 526344
0.1767581 0.080764137 0.54399693 526344
0.17765212 0.080750965 0.54390818 526344
0.17854586 0.080737799 0.54381949 526344
0.17943932 0.080724627 0.5437308 526344
0.18034047 0.080715045 0.54366624 526344
0.18124336 0.080706328 0.54360753 526344
0.18214606 0.080697618 0.54354888 526344
0.18306758 0.080697291 0.54354668 526344
0.18400542 0.08070413 0.54359275 526344
0.18501562 0.080742478 0.54385102 592137
0.18613215 0.080826618 0.54441774 526344
0.14767851 0.08194074 0.54568565 526344
0.1483428 0.081796497 0.54472506 592137
0.14903036 0.08166679 0.54386127 526344
0.14982441 0.08159668 0.54339439 460551
0.15067585 0.081558488 0.54314005 394758
0.15155309 0.081534646 0.54298127 328965
0.152458 0.081525877 0.54292285 328965
0.15338704 0.081530042 0.54295063 328965
0.15432359 0.081538133 0.54300451 328965
0.15526032 0.081546225 0.5430584 328965
0.15619726 0.081554323 0.54311234 328965
0.1571438 0.081567317 0.54319882 328965
0.15809663 0.081583388 0.54330587 394758
0.15904513 0.081597067 0.54339695 394758
0.15999331 0.081610419 0.54348588 394758
0.16094179 0.08162377 0.54357481 394758
0.16189057 0.081637129 0.54366374 394758
0.1628397 0.081650496 0.54375279 394758
0.16378912 0.081663869 0.54384184 394758
0.16474143 0.081678525 0.54393941 394758
0.16567737 0.08168494 0.54398215 394758
0.16660689 0.081688143 0.54400349 394758
0.16753645 0.081691332 0.54402471 394758
0.1684738 0.081698246 0.54407078 394758
0.16941161 0.081705324 0.54411793 394758
0.1703496 0.08171241 0.54416507 460294
0.17128776 0.081719495 0.54421228 460550
0.17219859 0.081713542 0.54417264 460551
0.17311375 0.081709683 0.54414696 460551
0.17403392 0.081708238 0.5441373 460551
0.17495406 0.081706777 0.54412758 460551
0.17587416 0.081705317 0.54411787 526087
0.17677791 0.081696324 0.54405797 526343
0.17767207 0.081683002 0.54396927 526343
0.1785659 0.081669681 0.54388052 526344
0.17945945 0.081656359 0.54379183 526344
0.18035437 0.081643797 0.54370815 526344
0.18125732 0.081634976 0.54364944 526344
0.18217292 0.081631914 0.54362905 526344
0.1830948 0.081631683 0.5436275 526344
0.1840412 0.081642337 0.54369843 526344
0.18503831 0.081675261 0.54391772 526344
0.18616714 0.081765719 0.54452008 526344
0.14731257 0.083182804 0.54776776 2105376
0.14762202 0.082834922 0.54547691 526344
0.14828536 0.082688719 0.54451412 526344
0.14901784 0.082582645 0.54381561 460551
0.14985298 0.08253441 0.54349798 394758
0.15070853 0.082497939 0.54325783 328965
0.15158984 0.082475938 0.54311293 263172
0.15250716 0.082473658 0.54309791 263172
0.15344389 0.082481846 0.54315186 263172
0.1543808 0.082490034 0.5432058 328965
0.15531789 0.08249823 0.54325974 328965
0.1562552 0.082506433 0.54331374 328965
0.15719275 0.082514666 0.54336798 328965
0.15813559 0.082525574 0.54343981 328965
0.15908365 0.082539052 0.54352856 328965
0.16003197 0.082552522 0.54361725 328965
0.16098067 0.082566015 0.54370612 328965
0.16192964 0.082579501 0.54379493 328965
0.16287893 0.082592994 0.5438838 328965
0.16382852 0.082606494 0.54397267 328965
0.16477583 0.082618691 0.54405302 394757
0.165712 0.082625203 0.54409587 394758
0.16664962 0.082632363 0.54414302 394758
0.16758741 0.082639523 0.54419017 394758
0.16852537 0.08264669 0.54423738 394758
0.1694635 0.082653858 0.54428458 394758
0.17040178 0.082661025 0.54433179 394758
0.17133614 0.082666226 0.544366 394758
0.17224 0.082656726 0.54430348 394758
0.1731443 0.08264754 0.54424298 394758
0.17406464 0.082646072 0.54423332 460551
0.17498493 0.082644597 0.54422361 460551
0.17590325 0.082642213 0.54420787 460551
0.17679775 0.082628712 0.544119 460551
0.17769201 0.082615249 0.54403031 460551
0.17858595 0.082601771 0.54394156 460551
0.1794796 0.0825883 0.54385287 460551
0.18037294 0.082574822 0.54376411 460551
0.18127804 0.082566842 0.54371154 460551
0.18220007 0.082566611 0.54371005 460551
0.18312205 0.082566366 0.54370844 460551
0.18407695 0.082580887 0.54380405 526344
0.18506728 0.082611084 0.54400289 526344
0.18620215 0.08270517 0.54462248 460551
0.14703539 0.083953954 0.54673707 526344
0.14756808 0.083729848 0.5452776 526344
0.14823011 0.083581455 0.54431123 526344
0.14904273 0.083519302 0.54390645 394758
0.14987795 0.083470494 0.54358858 328965
0.15074119 0.083437778 0.54337555 263172
0.1516268 0.083417781 0.54324532 263172
0.15256369 0.083426066 0.54329926 263172
0.15350078 0.083434358 0.54335326 263172
0.15443815 0.083442703 0.54340762 263172
0.15537608 0.083451241 0.54346323 263172
0.15631418 0.08345978 0.54351884 263172
0.15725246 0.083468311 0.54357439 263172
0.15819955 0.083481394 0.54365957 263172
0.15914798 0.083495028 0.54374838 328708
0.1600967 0.083508655 0.54383713 328965
0.16104579 0.083522312 0.54392606 328965
0.16199517 0.083535969 0.54401499 328965
0.1629432 0.083548784 0.54409844 328965
0.16388749 0.083559535 0.54416847 328965
0.16483201 0.083570294 0.54423851 328965
0.16576275 0.083573982 0.54426253 328965
0.16670066 0.083581217 0.54430968 328965
0.16763875 0.083588466 0.54435688 394757
0.168577 0.083595715 0.54440409 394758
0.1695154 0.083602965 0.5444513 394758
0.17045398 0.083610214 0.5444985 394758
0.17137736 0.083609976 0.54449695 394758
0.17228146 0.083600387 0.54443449 394758
0.17318532 0.083590783 0.54437196 394758
0.17409533 0.083584234 0.54432929 394758
0.17501581 0.083582751 0.54431963 394758
0.17592302 0.08357498 0.54426903 460294
0.17681763 0.083561331 0.54418015 460550
0.17771196 0.083547704 0.5440914 460550
0.178606 0.083534077 0.54400265 460550
0.17950788 0.083524235 0.54393858 394758
0.18041216 0.083515607 0.54388237 394758
0.18131565 0.083506696 0.54382437 394758
0.18222716 0.083501562 0.54379094 460551
0.18314932 0.083501324 0.54378939 460551
0.18411274 0.083519816 0.54390979 460551
0.18510982 0.083553314 0.54412794 460551
0.1862372 0.083644994 0.544725 460551
0.14690122 0.08480417 0.54623818 460551
0.14751689 0.084625676 0.54508847 460551
0.14824685 0.084514558 0.54437274 460294
0.14906764 0.08445628 0.54399735 394758
0.14990297 0.084406905 0.5436793 263172
0.1507704 0.084376097 0.54348087 197379
0.15168317 0.084370874 0.54344726 197379
0.15262087 0.084379509 0.54350287 197379
0.15355873 0.084388137 0.54355842 197379
0.15449683 0.08439678 0.54361409 262915
0.15543512 0.084405422 0.54366976 263172
0.15637359 0.084414065 0.54372543 263172
0.15731502 0.08442419 0.54379064 263172
0.15826355 0.084437981 0.54387951 263172
0.15921238 0.08445178 0.54396838 263172
0.16016153 0.084465586 0.54405731 263172
0.16111025 0.084479019 0.5441438 263172
0.16205439 0.084489897 0.54421389 263172
0.16299875 0.084500775 0.54428393 263172
0.16394335 0.084511645 0.54435396 263172
0.16488823 0.084522538 0.54442412 263172
0.16581957 0.084526412 0.54444909 328965
0.16675173 0.084530652 0.54447639 328965
0.16769013 0.084537998 0.54452372 328965
0.16862866 0.084545329 0.54457092 328965
0.16956735 0.084552653 0.54461813 328965
0.17050622 0.084559992 0.5446654 328965
0.17141858 0.084554173 0.5446279 394501
0.17232287 0.084544465 0.54456538 394758
0.17322701 0.084534779 0.54450297 394758
0.17413089 0.084525071 0.54444045 394758
0.1750467 0.084521234 0.54441571 394758
0.17594276 0.084507942 0.54433012 394758
0.176842 0.084496312 0.5442552 394758
0.17774709 0.084487572 0.54419893 394758
0.17865197 0.08447884 0.54414266 394758
0.17955667 0.084470108 0.5440864 394758
0.1804612 0.084461376 0.54403019 394758
0.1813655 0.084452644 0.54397392 394501
0.18226694 0.08444266 0.54390961 394758
0.18317661 0.084436566 0.54387039 460294
0.18415405 0.084461629 0.5440318 460551
0.18516624 0.084502295 0.54429376 394758
0.18627225 0.084585167 0.54482752 460551
0.14633515 0.085942872 0.54758817 526344
0.14680652 0.085675731 0.5458861 460551
0.14748137 0.085529946 0.54495722 394758
0.14826094 0.085446335 0.54442447 328965
0.14909019 0.085392207 0.5440796 328965
0.14992796 0.085343607 0.54376996 263172
0.15082069 0.085326687 0.54366213 197379
0.15174831 0.0853296 0.54368067 197379
0.15267885 0.0853341 0.54370934 197379
0.15361711 0.085342847 0.54376507 197379
0.15455556 0.085351579 0.54382074 197379
0.15549421 0.085360326 0.54387647 197379
0.15643305 0.085369065 0.54393214 197379
0.15737867 0.085381396 0.5440107 197379
0.15832759 0.085395351 0.54409963 197379
0.15927681 0.085409306 0.54418856 197379
0.160221 0.085420415 0.54425931 197379
0.16116518 0.085431397 0.54432929 197379
0.16210964 0.085442409 0.54439944 263172
0.16305436 0.085453421 0.54446959 263172
0.16399929 0.085464418 0.54453969 263172
0.16494446 0.085475422 0.54460979 263172
0.16587739 0.085479997 0.54463893 263172
0.16680583 0.08548221 0.54465306 328965
0.16774151 0.085488096 0.54469055 328965
0.16868034 0.085495517 0.54473782 328965
0.16961934 0.08550293 0.54478508 328965
0.17055514 0.085508674 0.54482168 328965
0.17145987 0.085498855 0.54475909 328965
0.17236437 0.085489035 0.54469651 328965
0.17326866 0.085479207 0.54463392 328965
0.17417277 0.085469395 0.5445714 394501
0.17508106 0.085461736 0.54452258 328965
0.17598458 0.085451826 0.54445946 328965
0.17689012 0.085443005 0.54440325 328965
0.17779543 0.085434169 0.54434693 328965
0.17870055 0.085425325 0.5442906 328965
0.1796055 0.085416496 0.54423434 328965
0.18051025 0.085407659 0.54417807 328965
0.18141481 0.08539883 0.5441218 328965
0.18231729 0.085389115 0.54405987 328965
0.18321858 0.085378937 0.54399502 394758
0.18420854 0.085409977 0.54419279 394758
0.18523134 0.085455857 0.54448515 394758
0.18632586 0.085534208 0.54498434 460551
0.1461869 0.086783968 0.54703337 526344
0.14677347 0.08658246 0.54576319 460550
0.14744587 0.086433783 0.54482603 328965
0.14827503 0.086378284 0.54447621 263172
0.14910781 0.086325578 0.54414397 197379
0.14998226 0.08629749 0.54396689 197379
0.15089095 0.086289316 0.54391539 131586
0.15182135 0.086293593 0.54394233 131586
0.15275183 0.086297862 0.54396927 131586
0.15368241 0.086302139 0.54399621 131586
0.15461434 0.086307116 0.54402757 131586
0.15555336 0.086315952 0.5440833 131586
0.15649338 0.086325258 0.54414195 131586
0.15744236 0.086339355 0.54423082 197379
0.15838727 0.086351082 0.54430473 197379
0.15933134 0.086362205 0.54437482 197379
0.16027564 0.086373322 0.54444492 197379
0.16122016 0.086384445 0.54451501 197379
0.16216494 0.086395562 0.54458511 197379
0.16310996 0.086406693 0.54465526 197379
0.16405524 0.086417831 0.54472548 197379
0.16500075 0.086428963 0.54479563 197379
0.16593526 0.086434245 0.54482895 263172
0.16686401 0.08643648 0.54484302 263172
0.16779295 0.08643879 0.54485756 263172
0.16873205 0.086446285 0.54490483 328964
0.16967134 0.086453795 0.54495215 328965
0.17059621 0.086453907 0.54495287 328965
0.17150116 0.086443976 0.54489028 328965
0.17240587 0.086434036 0.54482764 328965
0.17331289 0.086425357 0.54477292 328965
0.17422543 0.086419515 0.54473609 328965
0.17513785 0.086413659 0.54469919 263172
0.17604102 0.086403333 0.5446341 263172
0.17694299 0.086392529 0.54456598 263172
0.17784478 0.086381748 0.54449803 263172
0.17874917 0.086372338 0.54443872 263172
0.17965436 0.086363405 0.54438239 263172
0.18055934 0.086354464 0.54432607 263172
0.18146417 0.086345538 0.5442698 263172
0.18236765 0.086336076 0.54421014 263172
0.1832878 0.086334556 0.54420054 328965
0.18426305 0.086358875 0.54435384 328965
0.18529651 0.08641009 0.54467666 328965
0.1864149 0.086500213 0.54524475 1184274
0.14558131 0.087906919 0.54824817 526344
0.14611208 0.087667249 0.54675341 460551
0.14674044 0.087488778 0.54564035 394758
0.14746991 0.087372452 0.54491484 263172
0.14831106 0.087323338 0.54460853 197379
0.14915127 0.087274268 0.54430252 197378
0.15004875 0.087259121 0.54420805 131586
0.15096359 0.087254182 0.54417723 65793
0.15189442 0.087258503 0.54420418 131586
0.15282539 0.087262832 0.54423118 131586
0.15375641 0.087267153 0.54425812 131586
0.15468754 0.087271482 0.54428512 131586
0.15561876 0.087275796 0.54431206 131586
0.15655546 0.087283127 0.54435778 131586
0.15749732 0.08729323 0.54442078 131586
0.15844129 0.087304384 0.54449034 131586
0.1593857 0.087315641 0.54456055 131586
0.1603303 0.087326869 0.54463059 131586
0.16127519 0.087338142 0.54470086 131586
0.1622203 0.087349392 0.54477102 131586
0.16316563 0.087360635 0.54484117 197378
0.16411126 0.087371908 0.54491144 197379
0.16505711 0.087383173 0.54498172 197379
0.16599318 0.087389164 0.54501909 197379
0.16692226 0.087391429 0.54503322 197379
0.1678514 0.087393709 0.5450474 263172
0.16878383 0.08739765 0.54507202 263172
0.16972341 0.087405242 0.54511935 263172
0.17063728 0.08739958 0.54508406 263172
0.17154245 0.087389551 0.54502147 263172
0.17245442 0.087383069 0.54498106 263172
0.17336737 0.087377153 0.54494417 263172
0.17428021 0.087371245 0.54490733 263172
0.17519291 0.087365329 0.54487044 263171
0.17609909 0.08735624 0.54481375 197379
0.17700136 0.087345317 0.54474562 197379
0.1779034 0.087334394 0.5446775 197379
0.17880522 0.087323479 0.54460943 197379
0.17970683 0.087312572 0.54454142 197379
0.18060844 0.087301776 0.54447407 197379
0.1815135 0.087292753 0.5444178 197379
0.18241802 0.087283559 0.54436046 197379
0.18336019 0.087292381 0.54441547 263172
0.18432683 0.087312706 0.54454225 263172
0.18536402 0.087366082 0.54487514 263172
0.18651237 0.08747106 0.54552984 1184274
0.14546242 0.088764608 0.54780048 460551
0.14603668 0.088549234 0.5464713 460551
0.14671093 0.088396803 0.54553062 263172
0.14751294 0.088322796 0.54507387 197379
0.14835434 0.088273145 0.54476744 131586
0.14921053 0.088232845 0.54451877 131586
0.1501153 0.088221602 0.54444939 65793
0.15103628 0.088219963 0.54443926 65793
0.1519676 0.088224351 0.54446632 65793
0.15289898 0.08822871 0.54449326 65793
0.15383045 0.088233076 0.5445202 65793
0.15476646 0.088239975 0.54456276 65793
0.15570413 0.088247739 0.54461068 65793
0.15664198 0.088255502 0.5446586 65793
0.15758084 0.08826375 0.5447095 65793
0.15852341 0.088273972 0.54477257 131585
0.15946621 0.088284187 0.54483563 131586
0.16040923 0.088294417 0.54489875 131586
0.16135247 0.088304646 0.54496187 131586
0.16229592 0.088314876 0.54502499 131586
0.16323961 0.088325113 0.54508817 131586
0.16418348 0.088335343 0.54515129 131586
0.16512761 0.08834558 0.54521447 131586
0.16605648 0.088347599 0.54522693 197378
0.16698195 0.088347793 0.54522812 197379
0.16790999 0.088349335 0.54523766 197379
0.16883951 0.088351637 0.54525185 263172
0.16977285 0.088355891 0.54527813 263172
0.1706818 0.088347487 0.54522628 263172
0.17159529 0.088341512 0.54518938 263172
0.17250866 0.088335536 0.54515249 197379
0.1734219 0.088329554 0.54511559 197379
0.17433502 0.088323578 0.54507869 197379
0.17524801 0.088317595 0.5450418 197379
0.17615719 0.088309772 0.54499352 197379
0.17705975 0.088298723 0.54492533 197378
0.17796209 0.088287689 0.5448572 197122
0.1788642 0.088276647 0.54478908 131586
0.17976609 0.088265605 0.54472095 131586
0.18066777 0.088254586 0.54465294 197122
0.18157038 0.088244125 0.54458839 197378
0.18247437 0.088234439 0.5445286 197378
0.18343696 0.088253044 0.5446434 197379
0.18440458 0.088273875 0.54477197 197379
0.18546088 0.088336729 0.54515988 263172
0.18660992 0.088442914 0.54581517 1184274
0.14487164 0.089904264 0.54908413 460551
0.14534143 0.089619473 0.5473448 460294
0.14600788 0.089458793 0.54636347 328965
0.14673524 0.089337222 0.54562098 197379
0.14755809 0.089274958 0.5452407 131586
0.14839762 0.089223497 0.5449264 65793
0.14927688 0.089196406 0.54476094 65793
0.15018192 0.089184955 0.54469103 0
0.15110904 0.089186683 0.54470158 0
0.15204079 0.089191101 0.54472858 0
0.15297745 0.089198336 0.54477274 65793
0.15391535 0.089206189 0.54482073 65793
0.15485339 0.089214042 0.54486865 65793
0.15579161 0.089221902 0.54491669 65793
0.15673001 0.08922977 0.54496473 65793
0.15766853 0.089237615 0.54501265 65793
0.15860751 0.089245632 0.54506159 65793
0.15955083 0.089255974 0.54512477 65793
0.16049437 0.089266323 0.54518795 65793
0.16143811 0.089276664 0.54525113 65793
0.16238208 0.089287013 0.54531431 65793
0.16332626 0.089297362 0.54537755 65793
0.16427067 0.089307718 0.54544079 131586
0.16520633 0.089313224 0.54547441 131586
0.16613223 0.089313425 0.54547566 131586
0.16705813 0.089313626 0.54547685 197379
0.16798402 0.08931382 0.54547805 197379
0.16890936 0.089313708 0.54547739 197379
0.16983005 0.089311175 0.54546189 197379
0.17074373 0.089304984 0.5454241 197379
0.17165722 0.08929877 0.54538614 197379
0.17257053 0.089292526 0.54534799 131586
0.17348374 0.089286298 0.54530996 131586
0.17439684 0.089280084 0.54527199 131586
0.17530979 0.089273855 0.54523396 131586
0.17622203 0.089267328 0.54519409 131586
0.17712706 0.08925724 0.54513252 131586
0.17803194 0.089247182 0.54507107 131586
0.17893662 0.089237116 0.54500961 131586
0.17984109 0.089227065 0.54494822 131586
0.18074535 0.089217015 0.54488683 131586
0.18164939 0.089206956 0.54482538 131586
0.18256664 0.089203447 0.54480398 131586
0.18352932 0.089222059 0.54491764 131586
0.18449748 0.089243144 0.54504639 197379
0.18556063 0.08930973 0.54545307 197379
0.18670759 0.089415796 0.54610085 1973790
0.14466272 0.090704925 0.54829234 394758
0.14530966 0.090528384 0.54722518 394758
0.14597934 0.090368167 0.54625672 263172
0.14677905 0.090289943 0.54578388 131586
0.14760375 0.090227999 0.54540944 65793
0.14844091 0.090174392 0.54508537 0
0.1493433 0.090160809 0.54500329 0
0.15024978 0.090149865 0.54493713 0
0.15118709 0.090157442 0.54498291 0
0.15212519 0.090165384 0.54503095 0
0.15306343 0.090173326 0.54507893 0
0.15400185 0.090181261 0.54512691 0
0.15494046 0.090189219 0.54517502 0
0.15587921 0.090197168 0.54522306 0
0.15681812 0.090205118 0.5452711 0
0.15775722 0.090213075 0.5453192 0
0.15869644 0.09022101 0.54536718 0
0.1596359 0.09022899 0.5454154 65793
0.16057958 0.090239242 0.54547739 65793
0.16152385 0.090249717 0.54554069 65793
0.16246833 0.090260185 0.54560399 65793
0.16341302 0.090270646 0.54566723 65793
0.16435543 0.090279736 0.54572219 65793
0.16528173 0.090279937 0.54572338 65793
0.16620806 0.090280145 0.54572463 131586
0.16713439 0.090280354 0.54572588 131586
0.16805577 0.090277895 0.54571104 131586
0.16897692 0.09027534 0.5456956 131586
0.169898 0.090272777 0.54568011 131586
0.17081594 0.09026859 0.54565477 131586
0.17172979 0.090262286 0.54561669 131586
0.17264351 0.090255998 0.54557866 65793
0.1735571 0.090249695 0.54554057 65793
0.1744758 0.090246104 0.54551888 65793
0.17539577 0.090243205 0.54550135 131586
0.17630121 0.090232901 0.54543906 131585
0.17720422 0.090221472 0.54536998 131585
0.17810948 0.090211295 0.54530847 131586
0.17901455 0.090201132 0.54524702 131586
0.17991941 0.090190962 0.54518557 131586
0.18082406 0.090180799 0.54512411 131586
0.18173563 0.090174176 0.54508406 131586
0.18265899 0.090173423 0.54507953 65793
0.18362182 0.09019208 0.5451923 131586
0.18459047 0.090213388 0.54532111 131586
0.18566787 0.090287372 0.54576832 197379
0.18686581 0.090418942 0.54656363 1973790
0.14419192 0.091928184 0.55004519 460551
0.14462523 0.091611482 0.54815024 394758
0.14527789 0.091436885 0.54710555 328965
0.14600973 0.091314018 0.54637039 131586
0.14682449 0.091244243 0.54595292 65793
0.14764944 0.091181628 0.54557824 0
0.14850405 0.091137998 0.54531717 0
0.14942124 0.091133088 0.54528779 0
0.15034775 0.09113387 0.5452925 0
0.15128124 0.091138855 0.5453223 0
0.15221737 0.091145359 0.54536122 0
0.15315366 0.091151871 0.5454002 0
0.15409005 0.091158375 0.54543912 0
0.15502761 0.09116549 0.54548168 0
0.15596689 0.09117353 0.54552978 0
0.15690637 0.091181576 0.54557794 0
0.15784599 0.091189615 0.54562604 0
0.15878576 0.091197655 0.54567415 0
0.15972573 0.091205709 0.54572231 0
0.16066585 0.091213755 0.54577047 0
0.16160966 0.091223799 0.54583055 0
0.16255467 0.091234386 0.54589391 0
0.16349988 0.091244973 0.54595727 0
0.16443047 0.091247335 0.54597139 65793
0.16535722 0.091247544 0.54597265 65793
0.16627987 0.091245502 0.54596043 65793
0.16720147 0.091242909 0.54594493 65793
0.16812304 0.091240324 0.54592943 65793
0.16904455 0.091237739 0.54591399 65793
